ply
format ascii 1.0
comment Created by Open3D
element vertex 965
property double x
property double y
property double z
property double nx
property double ny
property double nz
property uchar red
property uchar green
property uchar blue
end_header
-64.7849 54.8508 -69.6231 -0.12085 0.908308 0.400464 187 179 99
66.1373 282.109 -74.2989 0 0 1 137 131 102
15.8787 -60.2357 -89.1264 0 0 1 163 168 171
-4.08098 20.1445 -87.5231 0 0 1 233 234 232
1.2433 184.696 -94.5987 0 0 1 158 140 102
-22.8825 263.284 -94.6364 0 0 1 191 192 194
105.708 -38.4035 -79.6477 0 0 1 131 123 121
204.336 -28.2194 -24.157 0 0 1 128 131 108
-4.49606 322.674 -84.9825 0 0 1 26 35 29
95.8823 232.565 -91.6515 0 0 1 15 19 20
-132.798 237.356 -98.6652 0 0 1 38 50 47
151.764 104.31 -49.5002 0 0 1 149 139 118
-18.6389 329.88 -98.8748 0 0 1 160 177 138
143.122 160.34 -89.0604 0.964169 -0.0114767 0.26504 15 21 18
100.102 -70.284 -80.7996 0.813939 0.0500412 -0.578791 181 223 144
25.5473 -39.1172 -89.1518 0 0 1 115 142 142
93.8119 -16.9935 -80.1466 0 0 1 151 149 154
-6.98187 -84.9005 -80.7791 0.468981 0.448835 -0.76066 13 18 16
165.967 215.609 -92.5427 0 0 1 20 27 27
115.893 219.812 -78.0179 0.0673282 0.388487 -0.918991 27 27 24
-54.0935 297.644 -94.6761 -0.141335 -0.916041 0.375356 173 177 109
-54.3374 -48.2089 -72.1335 0 0 1 106 119 70
-2.76927 323.285 -84.9847 0 0 1 100 111 85
-84.8474 212.046 -89.4527 0 0 1 100 102 63
130.819 28.6062 -47.152 0 0 1 160 141 116
115.459 3.43784 -62.8862 0.587182 -0.0183558 -0.809247 64 46 41
180.585 -78.2765 -43.046 0 0 1 113 115 86
35.1691 134.435 -92.9852 0 0 1 170 170 168
115.867 312.282 -83.2893 0 0 1 31 38 43
-62.6525 -5.84268 -58.6438 0 0 1 106 110 84
131.859 62.0725 -41.5173 0 0 1 108 94 74
147.209 53.5766 -31.4239 0.619186 0.683302 -0.386921 228 219 157
135.975 32.7884 -41.512 0.112218 0.993297 0.027698 156 146 120
-77.8864 -40.4686 -76.169 0.938418 0.335315 0.083281 36 40 27
0.880398 31.2341 -90.372 -0.042942 -0.755001 -0.654317 167 165 161
225.836 -80.6954 -30.0672 0.799788 0.502791 -0.327935 139 140 99
-10.666 208.221 -94.5674 0 0 1 166 168 173
116.691 213.084 -74.7749 0 0 1 21 27 25
9.53499 91.5519 -91.25 0 0 1 153 152 155
-143.838 125.072 -75.2166 0 0 1 177 166 130
165.508 22.0637 -28.9519 0.840779 -0.513058 -0.172807 187 227 153
-109.245 -52.4037 -75.8409 0.320531 -0.423104 -0.847492 110 118 76
38.8779 321.065 -90.9675 0 0 1 15 23 24
38.0118 -34.5798 -89.6445 0.687183 -0.487641 -0.538503 107 92 66
-21.692 182.954 -93.8938 0 0 1 160 163 116
-89.583 47.6682 -79.6211 0 0 1 10 12 9
-39.2555 285.044 -94.6262 -0.60011 0.171511 0.781315 212 206 198
211.639 -76.8717 -31.499 0 0 1 192 177 103
59.9223 -94.6435 -79.3485 0.957355 0.21926 0.188138 71 68 48
217.14 -59.0294 -22.9245 0 0 1 81 80 83
-58.0072 308.367 -84.7595 0.0368618 0.81323 0.580774 63 79 60
-127.913 167.572 -81.7781 0 0 1 132 149 102
139.506 -21.1933 -55.9785 -0.155558 -0.31428 0.936499 116 116 123
69.2261 132.211 -77.597 0.559544 0.735232 -0.38255 116 118 82
-17.9263 -91.0543 -79.6785 -0.12365 -0.589181 -0.798484 57 71 88
-0.183781 181.396 -95.5988 0.0434891 0.432827 -0.900427 188 180 150
31.6319 140.003 -93.0189 0.76014 -0.461997 -0.456888 185 194 196
199.867 -56.7551 -28.4737 0 0 1 166 165 128
-54.6126 231.302 -94.9397 0 0 1 196 207 157
101.525 143.26 -58.7494 0 0 1 33 44 33
-40.8711 217.135 -94.7142 0 0 1 198 205 209
-76.1041 -46.6805 -78.162 0 0 1 82 71 56
24.0695 78.6148 -91.58 0 0 1 139 145 111
47.3232 332.801 -90.3693 0 0 1 157 157 126
45.8885 -53.9322 -89.0884 0 0 1 116 113 73
82.2709 84.8474 -77.3424 0 0 1 145 126 102
-11.523 -71.7593 -85.8945 0 0 1 13 16 13
192.571 -41.9479 -28.4517 0.903221 0.279465 0.325716 0 0 0
60.6352 318.978 -84.6266 0 0 1 48 48 41
98.5145 185.38 -66.2562 0 0 1 33 42 39
159.208 40.6477 -28.6172 0 0 1 73 66 50
99.1497 104.807 -59.3593 0 0 1 23 39 27
93.5394 233.378 -93.1751 0 0 1 46 46 41
-0.943696 280.194 -94.7185 -0.10264 0.610215 -0.785559 208 211 212
-82.0918 96.9863 -78.3553 0.74945 -0.63321 -0.193315 89 109 71
-0.0821534 62.8431 -90.9806 0.655798 0.235295 -0.717332 141 139 140
141.059 104.036 -50.3497 0 0 1 64 62 52
169.627 -24.3071 -37.595 0 0 1 124 110 77
-11.1493 83.746 -91.2725 0.493747 0.314479 -0.810751 166 171 177
-92.2984 -36.5762 -78.5957 0.428994 0.22589 -0.874607 106 114 118
31.505 157.365 -93.3625 0.338251 0.581173 -0.740151 202 210 212
123.67 133.903 -83.6181 0 0 1 5 10 11
106.558 89.9696 -60.6036 0 0 1 12 22 19
10.8606 44.8631 -90.8852 0 0 1 151 157 162
-54.5732 205.593 -95.498 0 0 1 131 116 92
116.048 17.5913 -61.1797 0 0 1 19 27 24
-105.459 128.952 -67.0061 0 0 1 26 43 33
-119.962 133.621 -75.7812 0 0 1 60 71 60
88.9668 132.915 -58.9089 0 0 1 105 114 88
23.7969 121.258 -92.5372 0 0 1 179 172 141
159.329 144.71 -59.176 0 0 1 174 210 148
20.6106 329.46 -91.9745 0 0 1 150 170 116
244.76 -46.6778 -24.9723 0 0 1 12 22 16
140.36 -37.7065 -57.2421 0 0 1 52 57 47
-43.4439 -88.5005 -73.2629 -0.270515 -0.168535 -0.947849 81 96 64
-56.1616 2.54196 -62.4321 0 0 1 87 89 65
225.613 -44.7785 -19.8131 -0.530743 -0.144753 -0.83508 152 168 120
115.619 50.8305 -54.8837 0 0 1 96 98 58
94.4823 -75.0501 -84.6013 0 0 1 67 80 52
-51.4068 203.503 -94.4833 0 0 1 142 124 102
21.2603 234.832 -94.6255 -0.215928 -0.752488 -0.622203 137 132 116
111.004 -56.975 -78.9821 -0.26938 -0.198273 -0.942402 179 180 178
-39.7684 278.922 -94.8403 0 0 1 215 218 221
7.6437 96.6184 -90.3919 -0.585531 0.396352 -0.707148 143 168 160
-73.7462 -23.9 -64.2542 0 0 1 115 114 92
115.518 67.7709 -52.3187 0.986978 0.129204 0.0958181 43 58 57
121.101 169.702 -63.6204 -0.218552 0.403352 -0.888562 212 188 137
28.7979 146.368 -93.1615 0.665871 -0.560658 0.492218 187 193 196
-126.31 92.2802 -78.0443 0 0 1 94 94 80
-57.3965 264.583 -94.6962 0.741937 -0.102119 -0.662648 119 155 88
86.5051 50.7684 -74.215 0 0 1 139 123 109
16.5099 125.514 -93.4476 0 0 1 99 89 69
119.805 89.3662 -53.9628 0 0 1 14 21 23
-82.407 -3.5682 -59.9729 -0.655172 -0.738351 -0.159961 18 29 23
-94.0445 -42.919 -77.8134 -0.553466 0.419938 -0.719255 72 77 57
-101.807 45.9498 -63.325 0.338526 0.908653 -0.244438 86 93 75
35.2215 209.023 -94.2773 0 0 1 201 208 173
-57.1588 -17.1278 -57.6419 0 0 1 102 105 76
-91.2367 316.787 -90.7026 0 0 1 115 108 90
212.036 -77.8813 -27.0924 0 0 1 19 25 19
118.308 186.491 -64.8133 0 0 1 136 122 90
-9.09827 -89.2255 -80.0272 0.932664 0.284876 -0.221322 20 26 24
-105.832 53.1318 -59.2724 0 0 1 44 52 47
-68.9498 -90.3567 -71.6768 0 0 1 30 32 26
-72.388 72.4054 -75.4204 0 0 1 98 117 65
-4.01945 35.7337 -81.4604 0 0 1 192 190 202
81.6143 53.4831 -77.9818 0.91213 0.127084 -0.389704 110 96 87
-36.6748 169.441 -93.6164 0 0 1 187 196 198
-45.8076 -81.1467 -78.8456 0 0 1 78 74 52
47.6641 82.403 -91.3804 0 0 1 78 131 127
13.8897 94.5026 -91.4028 0.134521 0.242291 -0.960832 142 142 106
-76.9213 80.5366 -75.1783 0 0 1 74 99 55
126.59 -64.1745 -74.0266 0 0 1 20 24 22
-83.0814 161.724 -93.2439 0 0 1 37 50 38
-69.6986 50.7583 -67.0287 0.788536 0.347215 -0.507594 51 66 50
-115.824 90.1176 -62.1043 0 0 1 96 92 72
2.59251 329.952 -93.0058 0 0 1 42 44 38
-36.3591 100.323 -92.1484 -0.550824 0.0652581 -0.832066 173 179 131
-2.94829 263.265 -94.5225 -0.698147 -0.240025 -0.674521 169 216 237
198.127 1.17167 -29.075 0 0 1 202 213 141
38.8293 76.3133 -91.6712 0.785637 -0.617321 -0.0411073 161 161 163
-82.0681 181.854 -92.8917 0 0 1 14 20 15
-16.1288 289.089 -87.5 0 0 1 98 95 61
-53.1689 298.851 -94.7024 -0.0283962 0.021428 -0.999367 178 179 123
-66.958 241.151 -93.8142 0 0 1 170 180 199
49.5925 298.191 -83.1603 0 0 1 86 108 77
-36.159 -81.4353 -79.6575 -0.491771 0.259586 -0.831129 45 53 48
57.0305 264.938 -88.2936 0 0 1 80 100 69
-133.825 50.4384 -74.7058 0 0 1 9 15 15
154.593 -73.8831 -52.8402 0 0 1 153 169 113
16.9867 35.3271 -90.5221 0 0 1 146 146 150
181.236 -31.2212 -33.5284 0 0 1 137 152 80
-68.5242 242.474 -94.3029 0 0 1 126 128 115
-105.209 116.632 -69.8546 0.988555 -0.0109709 -0.150462 55 77 51
-70.8554 336.467 -95.4071 0 0 1 111 103 85
202.724 -74.6711 -37.5929 0.189364 0.436878 -0.879363 177 160 144
47.7962 -79.424 -83.5668 -0.603941 -0.178334 -0.776822 23 31 25
41.7938 -13.5549 -90.0386 -0.468034 0.102394 -0.877758 109 114 72
-69.0229 -83.201 -70.8498 0.667106 -0.562542 0.488381 90 118 56
-14.7664 3.66729 -90.3644 0 0 1 175 182 182
129.916 223.878 -79.6172 0.593479 0.712893 0.373586 150 144 86
114.424 15.5257 -64.0524 0 0 1 129 133 138
-16.2832 215.95 -94.5557 0.89759 0.0088545 0.440742 162 166 170
-41.5547 290.557 -88.4533 0.937495 0.307255 0.163392 0 0 0
109.048 327.449 -83.3448 0 0 1 212 199 159
13.3134 315.873 -86.7356 0 0 1 37 48 45
162.892 20.6356 -29.7079 0 0 1 23 42 27
80.4075 87.2073 -77.8784 0 0 1 101 95 74
-60.5082 293.033 -94.6222 0 0 1 204 206 203
-59.8654 156.951 -90.9249 0 0 1 109 118 86
-63.1369 339.223 -99.6166 0 0 1 44 47 40
-70.1107 52.0231 -67.1807 0 0 1 79 82 72
16.1948 -63.2649 -88.9834 0.912533 -0.165775 0.373901 146 138 121
100.847 101.4 -66.9726 0 0 1 0 0 0
-96.2903 -73.3472 -77.8401 0 0 1 121 108 89
133.64 225.931 -90.7739 0 0 1 24 29 24
173.896 50.6405 -33.97 0 0 1 26 37 34
181.944 -18.2638 -28.043 -0.040058 -0.880578 -0.472205 141 179 113
-22.6834 74.71 -91.3509 0 0 1 142 140 143
-43.4185 182.96 -94.257 0 0 1 192 192 151
-101.2 -39.8069 -76.2584 0.490716 -0.520197 0.698994 49 65 36
96.6952 191.414 -64.5317 0 0 1 76 88 66
60.9925 -0.879923 -90.0837 0 0 1 152 153 156
123.167 82.5385 -42.1837 0 0 1 68 73 53
-19.0295 345.035 -98.9743 0 0 1 0 0 0
4.73606 -99.6362 -79.1055 0.124658 0.737264 0.664004 164 165 157
62.2351 320.459 -85.8936 0 0 1 62 61 52
-70.0919 -14.948 -60.1347 0 0 1 37 39 31
-96.9962 -57.4478 -77.8816 0 0 1 0 0 0
-108.491 47.6021 -56.9116 -0.441432 0.892277 0.0947618 196 180 117
-76.2107 289.944 -94.6153 0.164151 0.752744 -0.637519 213 215 215
-26.5349 212.46 -94.4843 0 0 1 169 167 145
121.162 171.221 -63.5708 0 0 1 203 190 136
0.32636 -99.6734 -74.3781 -0.0047367 -0.492167 -0.870488 208 217 226
66.3612 261.785 -84.1491 0 0 1 111 110 92
-68.6167 46.054 -65.2903 0 0 1 98 108 77
3.14359 237.86 -94.6533 0.722571 0.181936 -0.666926 167 163 165
-66.5971 221.742 -85.2875 0 0 1 133 133 98
-61.7364 331.86 -96.3069 0 0 1 35 40 37
156.323 307.388 -76.8398 0 0 1 91 112 62
-50.3702 316.645 -94.3766 0 0 1 39 45 37
113.877 187.707 -63.4843 0 0 1 95 93 69
151.452 227.402 -92.6924 0 0 1 73 117 64
16.8479 317.779 -86.8343 0 0 1 74 98 64
200.477 -53.2988 -29.5256 0 0 1 141 143 103
146.535 106.892 -48.0573 0 0 1 51 56 42
55.7303 -40.6626 -89.3275 0 0 1 118 119 71
118.625 -53.5108 -76.7118 -0.203517 0.521299 -0.828751 0 0 0
-13.6184 292.771 -85.5722 0 0 1 49 57 41
-33.5459 249.02 -94.2322 0 0 1 54 55 60
-45.1322 48.691 -90.2688 0.0478012 0.886897 0.459488 169 172 138
-59.7975 285.047 -94.8543 0.292189 0.917965 -0.268266 201 206 210
132.257 -62.2563 -65.635 0 0 1 54 63 34
161.616 286.733 -79.8864 0 0 1 200 196 148
214.253 -28.6935 -20.6099 0.908833 -0.402456 -0.109785 42 59 47
169.209 42.2109 -31.4802 0.949907 0.269433 0.158373 107 129 83
2.36681 -5.68256 -90.1289 -0.0412952 0.951898 -0.303621 76 104 103
-50.6895 116.305 -92.6945 0 0 1 206 213 216
-122.022 40.9679 -55.3775 0 0 1 137 156 102
74.9472 -86.5136 -82.6798 0 0 1 56 62 28
135.002 318.425 -85.3196 0 0 1 29 39 38
-52.1722 329.079 -96.3123 0 0 1 36 51 34
145.535 111.669 -65.4952 0 0 1 0 0 0
51.7004 51.4125 -91.3253 -0.112418 0.449286 -0.886287 109 131 68
198.319 3.07364 -25.1088 -0.458528 0.189604 -0.868218 185 228 168
176.133 229.884 -93.8981 0.983378 -0.0893274 0.158078 26 34 37
-105.756 209.888 -83.8795 -0.176428 0.929442 -0.324054 118 107 74
-103.003 59.4312 -61.5898 -0.596142 0.0845115 -0.798419 19 29 20
82.8689 327.426 -95.5605 0 0 1 29 35 42
208.364 -34.9868 -22.7844 -0.156187 0.501998 -0.850649 67 85 73
173.585 24.4658 -36.5599 0 0 1 63 92 66
148.785 107.666 -54.0285 0 0 1 33 39 34
76.6153 142.2 -69.7535 0 0 1 74 85 69
58.0442 52.257 -82.756 0 0 1 64 59 40
162.574 202.634 -83.3721 0 0 1 44 47 51
-49.2325 67.6415 -87.8286 0.625853 0.0647453 -0.777249 205 202 213
-64.5411 -31.1063 -62.6859 0 0 1 169 161 133
91.8985 342.19 -94.0026 0 0 1 116 130 94
-35.5825 145.188 -93.2773 0 0 1 147 167 93
125.049 37.5683 -48.231 0.859851 0.49913 0.107359 133 120 109
-107.024 76.191 -59.0319 0 0 1 137 166 96
180.509 -21.1389 -30.9039 0 0 1 142 168 101
-47.89 231.321 -94.742 0 0 1 200 205 208
32.0676 133.183 -92.8395 0 0 1 179 180 185
158.132 23.9478 -30.9451 0 0 1 150 154 100
80.6786 178.974 -62.2588 0 0 1 63 63 47
40.7915 272.525 -94.8284 0.620028 -0.603264 0.501636 190 190 150
77.4182 235.522 -82.2046 0 0 1 155 179 111
-87.0261 270.364 -94.5899 0.502886 0.426269 -0.751931 211 209 175
-101.826 309.986 -82.9993 0 0 1 147 146 86
170.535 -24.4925 -39.6801 0 0 1 83 87 54
11.2365 98.4018 -91.4474 -0.507717 0.0744314 -0.858303 28 28 28
-98.1821 -55.5793 -76.5027 0 0 1 98 116 63
133.406 279.95 -82.537 0 0 1 123 118 113
115.135 100.22 -60.1171 0 0 1 11 18 16
49.3311 157.471 -85.6552 0.499718 -0.14017 -0.854771 95 72 62
-121.444 307.713 -92.7275 0 0 1 24 36 31
94.6328 109.265 -58.7317 -0.536144 0.807562 -0.245753 112 140 87
-37.0469 -60.1571 -79.4823 0 0 1 40 37 38
-80.107 31.3384 -58.7932 0 0 1 96 128 74
-115.958 175.673 -83.972 0 0 1 157 136 93
-72.6747 -30.5759 -60.8601 0 0 1 136 130 102
-109.295 123.803 -70.9697 0.858797 0.490674 -0.14733 161 155 145
41.1244 331.927 -93.205 -0.335357 0.941382 0.0365371 34 49 40
87.1372 212.195 -80.5499 0 0 1 160 171 122
34.7072 252.576 -94.9173 0.63268 0.00785196 -0.774374 219 223 223
-89.1628 93.5273 -69.7449 -0.196901 0.00603525 0.980405 46 71 40
-91.9989 38.5004 -64.2244 0 0 1 41 42 40
-53.1735 35.4404 -82.2303 0 0 1 137 128 100
207.657 -24.7014 -24.8923 0.786666 -0.296597 0.541467 44 56 48
20.1747 204.139 -93.4707 0.803056 0.0854927 -0.589739 218 233 234
-18.1065 254.389 -94.5353 0 0 1 172 179 181
138.588 57.2166 -33.2322 0 0 1 223 204 136
129.34 38.1272 -43.1973 0.140844 0.902935 -0.406044 160 150 134
-16.4114 -80.7798 -83.905 0 0 1 26 30 31
139.404 -2.13245 -52.5396 0 0 1 224 220 193
35.7825 222.629 -94.7565 0.765189 -0.642233 -0.0449724 205 207 210
-98.8384 -22.2265 -69.469 0 0 1 164 161 128
-81.4939 228.213 -89.1355 -0.365366 0.0850735 -0.926968 90 96 74
117.178 299.181 -73.304 0.757366 -0.501946 0.417668 172 166 108
19.5954 125.494 -91.8274 0 0 1 66 245 220
-4.66325 203.919 -94.6068 -0.125707 -0.575611 0.808004 171 171 176
-9.68808 -50.5751 -89.2201 -0.45307 0.199511 -0.868863 143 145 107
158.06 15.6596 -30.3519 0 0 1 0 0 0
212.511 -18.8111 -29.5154 0 0 1 22 34 34
-70.6214 -39.3361 -78.3046 0.572797 0.376226 -0.728257 45 47 50
70.8285 23.0453 -82.5364 0 0 1 64 60 54
28.5457 341.059 -89.7068 0 0 1 41 64 44
-28.3849 -31.2612 -85.4478 -0.475521 0.75396 -0.453237 189 181 142
48.7834 2.47794 -90.1872 0 0 1 135 133 104
10.5568 287.652 -94.7306 0 0 1 216 219 222
113.075 -89.0017 -78.0173 0.522366 0.791455 0.317384 29 40 65
147.244 73.2575 -50.6283 0 0 1 56 53 45
-75.2687 -13.4676 -55.6719 0 0 1 136 131 92
165.897 129.479 -59.6354 0.729308 0.30417 -0.612854 62 81 64
13.3374 203.191 -94.4547 -0.546405 0.142543 -0.825302 200 207 206
141.029 110.465 -55.4735 0.767657 0.63199 -0.106259 29 34 28
-104.349 95.7368 -69.2293 0 0 1 15 24 20
174.558 -72.4663 -41.3231 -0.466267 0.251607 -0.848109 104 104 94
87.4893 63.0523 -73.2966 0 0 1 98 97 103
-140.853 303.033 -98.9821 0 0 1 32 43 37
90.35 292.259 -71.212 0 0 1 92 90 61
68.2651 -52.3141 -89.1334 0 0 1 149 165 179
-40.1349 199.522 -94.5519 0 0 1 184 192 141
66.752 185.747 -80.889 0 0 1 20 24 20
180.01 -15.2011 -30.7647 -0.075382 0.0395525 -0.99637 22 35 33
19.1551 277.889 -94.7908 -0.503576 0.728327 -0.464705 187 201 129
-2.32589 223.162 -94.6165 0.473557 0.053762 -0.879121 146 142 108
-120.529 93.9126 -68.0428 0 0 1 26 32 30
127.482 121.095 -62.5459 0.690479 0.567954 -0.447959 9 19 15
-40.9258 40.5997 -87.7421 0.0644543 -0.974786 -0.21363 138 137 134
45.0294 280.914 -90.7487 0 0 1 96 93 88
51.2963 -61.3615 -88.9587 0 0 1 146 147 151
79.8612 228.056 -82.6972 0 0 1 20 33 23
-14.6207 175.9 -94.176 0 0 1 124 119 87
74.4193 -54.1168 -89.1462 0 0 1 140 143 144
116.234 30.3461 -59.2602 0 0 1 107 111 98
-45.7228 -57.1623 -73.2284 0.529022 0.83615 0.144877 102 119 78
-50.4683 21.4718 -81.9463 0 0 1 135 110 78
67.8177 94.4866 -78.6739 0 0 1 153 136 108
-86.0776 -32.6823 -73.2518 0 0 1 132 143 67
72.8333 257.879 -84.5258 0 0 1 87 79 59
129.42 3.35075 -59.3791 -0.483529 -0.519725 -0.704333 116 112 90
226.383 -80.3381 -29.8595 0 0 1 110 114 83
13.8104 -93.7494 -79.3735 0 0 1 12 22 33
-47.3312 -61.3259 -74.1783 0.906525 0.374158 0.195495 37 46 35
185.286 18.6917 -30.9626 0 0 1 80 104 65
54.9436 277.809 -80.0569 -0.375207 0.0731981 -0.924046 120 144 95
-70.54 6.78492 -57.731 0 0 1 127 138 78
36.7506 -45.6836 -89.1393 0 0 1 55 61 74
89.8232 105.917 -68.765 0 0 1 84 105 67
56.0325 252.955 -94.6737 0.00653513 0.432021 -0.90184 220 216 211
-36.4124 12.983 -81.5944 -0.165564 0.778336 -0.605625 150 164 141
195.011 2.95792 -27.5545 0.370434 0.450857 0.8121 17 32 25
121.108 -96.4043 -70.8285 -0.2495 -0.0591363 -0.966567 12 18 17
25.3985 303.634 -87.4157 0 0 1 0 0 0
-34.1693 292.374 -93.8299 -0.456807 0.31048 -0.833624 67 73 64
16.5135 168.003 -93.5477 0.0989036 -0.245024 -0.964459 185 193 150
163.967 84.0377 -42.8443 0 0 1 91 102 97
102.613 238.423 -93.5303 0 0 1 159 146 112
114.811 242.042 -96.7915 0 0 1 48 44 39
98.6134 11.8443 -68.0662 0 0 1 120 101 84
-92.1605 -78.4869 -81.7174 0 0 1 188 188 172
-118.916 114.777 -62.9654 0 0 1 153 171 109
43.4999 264.766 -94.6419 0 0 1 214 213 202
203.452 -38.9422 -27.1837 0 0 1 8 10 9
-119.833 109.573 -63.0338 0 0 1 81 99 61
57.0297 -77.2599 -84.8237 0 0 1 22 28 24
217.76 -77.3501 -24.5665 -0.355702 0.175932 -0.917891 120 116 76
-51.6176 -55.3078 -74.6764 0 0 1 54 64 60
90.8878 224.845 -80.1887 0 0 1 24 28 27
-31.3003 199.476 -94.3323 0 0 1 193 199 203
-85.8494 -50.7212 -75.5614 0 0 1 97 120 54
-104.277 107.007 -73.5097 0.890832 -0.370896 -0.262402 82 84 59
134.215 135.094 -71.1678 0 0 1 32 42 31
62.2322 229.033 -94.711 0.592285 -0.113924 -0.797634 148 155 161
-80.9744 266.072 -94.5545 0.63994 0.648698 -0.411907 192 194 192
-128.203 204.197 -83.3276 0 0 1 30 43 37
164.884 176.729 -64.1656 -0.396761 0.814545 0.423199 19 43 37
-11.1787 -76.5618 -82.9604 0.830982 0.199693 -0.519221 64 80 47
-29.6665 281.515 -87.3017 0 0 1 108 132 83
46.7816 52.5802 -91.2854 -0.661269 0.701234 -0.266448 141 142 145
-105.854 202.809 -84.1761 0.0542799 -0.553712 -0.830937 45 58 38
83.6019 290.729 -73.7351 0 0 1 105 96 93
46.0076 217.237 -94.6418 0.164274 0.599536 -0.783307 212 214 216
-23.0361 -75.3423 -81.83 0 0 1 130 129 136
212.249 -22.3842 -23.949 0 0 1 43 51 42
35.8642 -37.8706 -89.4777 -0.564126 -0.0861343 -0.821184 113 102 69
23.3296 280.839 -94.7589 0 0 1 223 225 227
18.3418 196.202 -94.1822 0 0 1 75 77 55
72.4572 95.9758 -78.3886 0 0 1 192 198 198
-56.3059 197.153 -93.2884 0.8209 -0.538756 -0.189381 119 121 62
-21.9016 1.02663 -90.3949 0 0 1 187 192 195
199.403 -57.2638 -32.2984 0 0 1 144 129 107
130.688 50.9166 -35.1047 0 0 1 38 51 47
128.918 161.744 -85.8928 0 0 1 122 105 84
-102.676 283.903 -92.3507 0 0 1 93 108 86
70.5771 335.885 -93.1022 0 0 1 65 66 61
40.9175 -76.0807 -85.6435 0 0 1 44 50 34
99.6562 109.689 -59.0977 0.970342 -0.136248 0.199683 123 160 105
-89.6909 -39.5079 -78.1473 -0.441478 -0.35488 -0.82411 49 45 36
218.73 -12.5134 -24.5263 0 0 1 122 167 96
-125.612 253.11 -96.5873 0 0 1 15 23 22
210.708 -91.9345 -42.2768 0.891417 -0.137333 0.431874 193 198 134
140.306 187.052 -87.1977 0 0 1 153 162 136
16.914 226.072 -94.6932 0 0 1 162 163 163
-63.5623 333.004 -92.8844 0 0 1 111 107 83
55.1937 189.003 -86.8152 0.1636 0.0691831 -0.984098 112 90 83
-24.744 77.7328 -91.4933 0 0 1 130 241 192
221.998 -46.3208 -28.8303 0 0 1 7 8 8
87.7978 -5.53188 -80.4981 0.422386 -0.79352 -0.438082 158 160 165
6.82622 101.746 -93.2534 0 0 1 42 41 45
-29.076 -23.9479 -85.7919 0 0 1 168 157 124
104.497 -39.6253 -79.3026 0 0 1 159 160 159
-64.0965 250.821 -94.8244 -0.0607121 0.910919 -0.408093 200 203 206
143.856 -44.6546 -58.1584 0 0 1 62 62 52
-114.884 218.188 -86.9421 0 0 1 33 53 37
184.692 -20.6814 -28.2501 0 0 1 144 169 102
-30.8533 303.329 -98.9027 0 0 1 68 63 62
-69.7069 194.35 -88.2165 0 0 1 78 89 53
2.16511 221.228 -94.6232 0.387833 0.262963 -0.883423 121 122 77
-17.2535 152.072 -95.7033 0 0 1 157 146 114
169.74 206.523 -89.219 0 0 1 27 28 33
-15.8051 159.16 -94.9665 -0.207571 -0.197718 -0.95803 154 143 121
-89.572 87.2901 -70.9171 0 0 1 38 53 37
131.705 8.38883 -55.6045 0.646761 -0.600099 0.470724 0 0 0
169.581 21.8129 -30.1885 -0.446787 0.0338187 -0.894001 154 182 116
69.1867 225.991 -94.5296 0.0214795 0.165349 -0.986001 43 60 41
71.4533 280.888 -70.7577 0 0 1 112 137 90
208.188 -84.5311 -30.1211 0 0 1 90 108 65
92.6607 52.4386 -71.8243 0 0 1 146 151 159
-68.1055 -73.7844 -78.4133 0 0 1 49 48 36
84.6782 255.294 -81.1617 -0.541147 0.821075 -0.181647 166 195 123
156.858 62.2954 -41.2672 0 0 1 15 22 30
191.592 -6.82314 -24.6746 0.717836 0.36472 -0.593035 40 55 36
-36.3551 -84.7322 -77.1516 0 0 1 245 245 248
139.907 -52.815 -50.9401 0 0 1 85 98 65
-40.5571 187.731 -94.3324 0 0 1 196 199 149
151.259 27.7268 -27.969 0 0 1 187 186 117
-28.2712 -67.6277 -83.0641 -0.393137 0.78427 0.479963 141 146 143
15.2886 -68.4703 -88.9229 0.1208 -0.276711 0.95333 32 49 63
116.707 37.4741 -57.1365 0 0 1 36 33 28
29.9865 225.961 -94.8138 0 0 1 211 211 209
-105.505 -17.332 -59.6857 0 0 1 208 209 176
-56.0898 -15.0195 -56.8971 0 0 1 116 133 99
-1.49023 80.5232 -91.2754 0.190416 -0.747999 0.635798 164 165 169
56.6919 102.719 -84.2993 0 0 1 74 70 50
92.9411 -40.3022 -82.8898 0.296663 -0.783307 0.546279 95 90 77
77.762 272.076 -70.3228 0 0 1 63 79 42
-65.769 188.462 -86.1497 -0.262688 0.793451 0.549028 35 44 28
26.1246 210.732 -94.4985 0 0 1 179 192 144
138.422 150.258 -87.396 0 0 1 34 35 36
-79.8848 -45.7839 -77.0781 0.865753 0.500093 -0.019479 146 168 111
90.1606 74.6064 -75.7577 0.904014 -0.399283 -0.152745 141 149 152
166.128 12.4495 -31.3668 0 0 1 142 198 116
54.3829 39.7062 -91.1275 0.759344 0.198825 0.619569 96 104 59
72.6219 74.6465 -79.2164 0.0891098 0.158948 -0.983257 155 155 160
115.873 93.5324 -61.4107 0 0 1 5 8 9
-17.2596 -53.9255 -86.8952 0 0 1 149 128 104
26.3697 -50.3781 -89.2717 0 0 1 105 110 69
-70.0298 194.618 -88.3027 0.767926 0.431297 -0.473574 121 143 87
-1.92551 288.483 -94.6137 0 0 1 213 208 175
219.744 -76.6698 -25.2892 0 0 1 148 154 100
114.845 118.235 -65.0571 0 0 1 16 25 25
13.569 -84.0303 -81.3637 0 0 1 17 24 19
-40.5852 153.221 -93.3965 0.665303 0.389156 -0.637126 200 206 210
118.657 -33.2953 -69.3147 0 0 1 28 28 27
-36.8934 162.823 -93.5726 0.862813 -0.44606 -0.237874 185 193 198
32.5718 64.3892 -91.4036 0 0 1 108 119 79
88.1722 48.8247 -72.8014 0 0 1 125 110 85
-129.873 244.324 -98.1988 0 0 1 135 163 118
4.94252 6.24714 -90.3408 0.656882 -0.11333 -0.745427 153 153 172
-48.3618 177.179 -93.8951 -0.47975 0.429858 -0.764893 138 142 104
58.2031 50.1678 -89.0945 0.556938 -0.319437 -0.766668 115 107 95
139.702 123.85 -71.9591 0.716816 -0.543586 0.43668 10 16 14
-0.239953 38.521 -90.3509 0 0 1 153 151 152
-61.728 325.119 -96.722 0 0 1 89 85 83
-47.0829 85.5049 -91.7677 0.890828 0.394888 0.224697 190 195 198
21.3477 299.683 -85.7831 0 0 1 34 41 27
104.238 115.441 -59.5794 0 0 1 133 156 98
-66.1059 0.205434 -64.2392 0.331512 0.673552 -0.660627 42 51 31
-78.6468 84.1509 -76.116 0 0 1 33 51 29
196.804 2.76158 -25.1285 0.799923 0.568624 -0.191809 88 123 70
78.6179 323.465 -82.4659 0 0 1 31 49 37
-102.886 12.4856 -52.0086 0 0 1 162 150 135
52.1243 314.611 -83.9166 0.837762 0.545522 0.0236827 26 39 35
-23.1131 74.3151 -91.3964 0 0 1 136 132 135
-88.3224 281.914 -94.5631 0 0 1 199 199 197
194.425 -24.8754 -26.2218 0.828192 0.479811 -0.28962 171 175 136
74.7283 257.853 -82.4728 0 0 1 167 161 143
-84.2519 80.8957 -71.9913 0 0 1 77 110 58
-102.78 97.0533 -67.3841 0.447675 0.7148 -0.53726 36 55 32
146.864 -81.1919 -63.2249 0 0 1 17 21 22
-10.0785 278.569 -86.1634 0 0 1 79 95 56
-97.1194 229.473 -91.3127 0 0 1 83 97 65
81.1943 -45.9463 -89.0607 0.751357 0.291867 -0.591842 190 184 169
20.1821 111.084 -92.435 0 0 1 135 128 91
154.075 -49.9604 -50.623 0 0 1 79 87 64
-100.257 27.8709 -52.9729 0 0 1 89 105 59
159.139 4.00882 -32.6062 0.98153 0.188647 -0.0318087 60 99 59
77.2648 184.164 -69.5477 0 0 1 27 34 26
-5.52027 315.954 -86.65 0.185349 0.418991 -0.888871 134 166 111
-108.862 21.5184 -53.5056 0 0 1 51 51 41
33.0774 263.411 -94.8542 -0.509581 -0.392837 -0.76551 203 205 201
27.5588 262.451 -94.8828 0.729989 0.630183 -0.264546 199 205 205
-9.96226 319.571 -90.0482 0 0 1 68 65 49
-22.9739 87.3204 -91.5658 0 0 1 156 160 168
208.257 -25.6832 -25.3425 0 0 1 25 37 45
-81.3147 96.4449 -79.1363 0.770074 0.592613 -0.236211 138 158 102
147.566 -40.5232 -50.6048 0 0 1 137 139 106
-16.4027 94.3102 -90.4699 -0.0219149 -0.290026 0.956768 168 235 237
223.844 -48.7647 -21.8853 0 0 1 118 126 102
32.2977 143.545 -93.104 0 0 1 186 196 198
113.191 -89.5803 -78.0463 0 0 1 29 41 66
169.891 48.3564 -30.6442 0 0 1 144 197 125
83.0429 150.885 -57.1964 0 0 1 137 162 99
-13.3647 331.953 -95.236 0 0 1 44 44 39
13.5574 233.396 -94.5884 0 0 1 210 212 214
170.126 -56.9792 -44.9212 0.8769 0.422837 -0.228595 21 31 23
220.953 -50.4482 -20.6826 0 0 1 106 113 85
-56.4618 161.537 -89.8239 0.800631 -0.477634 -0.36174 130 150 103
-96.4652 305.938 -89.9299 0 0 1 179 196 169
-67.6841 164.532 -98.2514 0 0 1 74 71 54
-13.9362 -69.807 -84.701 0 0 1 75 96 55
7.08611 47.8696 -90.7902 0.716643 0.689762 0.103207 144 144 148
66.9919 -4.65162 -90.1266 -0.313391 -0.02048 0.949403 111 113 69
-90.1937 252.692 -89.9623 0 0 1 84 97 69
23.9576 141.199 -92.949 0 0 1 186 187 186
97.137 -78.338 -84.3778 0 0 1 102 137 84
147.915 155.733 -85.1574 -0.517462 -0.118293 -0.847491 35 39 34
99.6486 66.8242 -63.4223 0.929774 -0.287359 0.230096 102 134 76
135.677 235.677 -91.366 0 0 1 22 39 28
223.883 -50.9228 -21.6303 0.903542 0.243765 0.352406 120 109 88
114.531 -27.5205 -74.0288 0.637947 0.0359895 -0.769239 22 22 22
62.8739 307.156 -75.6968 0.143152 0.773521 -0.617392 108 120 90
1.87826 -77.485 -83.8392 0 0 1 0 0 0
66.4874 197.605 -79.8143 0 0 1 52 59 59
-149.359 84.1955 -64.8531 0 0 1 29 54 40
160.3 17.8702 -31.579 -0.602137 -0.0778036 -0.794593 9 14 12
-71.7246 214.803 -88.2011 -0.717915 0.695225 -0.0354986 131 128 92
64.9005 26.9831 -83.912 0 0 1 121 147 83
131.669 -83.6944 -75.5057 0 0 1 8 10 12
6.84308 -70.738 -86.6044 0 0 1 20 25 24
10.7008 97.4119 -90.5285 0 0 1 90 80 94
-30.116 297.143 -87.6326 0 0 1 123 114 98
-40.2739 286.586 -94.5273 0.633967 -0.396189 -0.664169 178 174 130
73.6175 307.843 -75.0819 0 0 1 66 83 60
70.6648 -2.47933 -88.8904 0 0 1 140 129 109
2.69029 -80.3055 -82.9098 -0.376066 0.910982 0.169371 37 39 37
33.7783 169.638 -93.619 0.936507 -0.195648 0.290992 177 178 180
-76.5801 -87.1034 -74.8207 0 0 1 26 31 25
106.215 62.148 -57.8595 0 0 1 161 155 117
-22.466 -91.7849 -79.7499 0.500792 -0.684438 -0.52986 125 120 121
101.922 336.13 -97.7961 0 0 1 55 72 63
-62.1 214.206 -92.3641 0 0 1 27 30 20
-93.7419 298.819 -94.4477 -0.198909 0.377147 -0.904541 202 202 197
-56.5924 96.7934 -92.0467 -0.216364 -0.652962 0.725829 193 199 200
87.7937 247.537 -77.0313 0.873736 -0.368994 -0.316906 126 134 95
-66.153 252.737 -94.827 0 0 1 198 203 206
-53.1467 259.909 -94.8123 0 0 1 193 198 202
150.31 -72.2093 -62.081 0 0 1 42 39 28
-84.106 185.992 -92.1211 0 0 1 89 92 77
188.529 -39.295 -29.9076 0 0 1 207 197 192
92.8185 -73.2514 -85.3673 0 0 1 11 19 12
-29.4611 260.486 -94.6894 0 0 1 181 190 191
71.4413 124.387 -76.4953 0.425127 0.0149892 -0.905009 55 68 50
72.8113 178.034 -68.1807 0 0 1 45 52 32
197.414 33.6132 -35.8851 0 0 1 206 229 158
-72.8777 -68.9197 -78.2927 0.45309 -0.0493028 0.890101 22 22 21
126.614 26.2526 -51.3749 0 0 1 157 147 113
119.565 35.2272 -54.3377 0 0 1 98 90 89
121.753 -71.0407 -74.2336 0 0 1 150 158 106
-71.1236 -11.7042 -56.8295 0 0 1 130 147 110
81.8965 332.15 -93.7582 0 0 1 30 41 50
-5.32779 -34.91 -89.3486 0 0 1 171 174 177
-108.302 318.53 -83.1124 0 0 1 107 114 82
-85.3027 134.486 -79.0537 0 0 1 127 115 62
-35.9893 117.155 -93.9754 0 0 1 98 92 73
-105.052 6.72378 -50.254 0 0 1 77 90 63
128.256 305.405 -73.3904 0.835965 0.546348 0.0516378 92 102 73
-94.4037 2.7262 -50.9497 0.731535 -0.60352 -0.317206 62 81 46
94.6212 300.786 -77.3408 0.886415 0.278154 -0.369998 16 26 22
102.204 193.334 -68.2393 0 0 1 108 104 95
-65.6423 52.2152 -68.7859 0 0 1 105 134 64
21.2888 83.4742 -91.7668 0.245444 0.0641429 0.967286 108 114 74
-36.2007 -18.3904 -82.1984 0 0 1 172 174 126
-65.6909 142.19 -89.5985 0 0 1 126 107 79
114.214 -23.7039 -58.9995 0 0 1 131 141 91
-131.962 230.361 -88.773 0 0 1 115 124 95
-86.4792 90.2846 -75.3811 0 0 1 18 27 22
-24.4037 32.3123 -81.0013 0 0 1 158 163 177
3.3862 122.845 -96.5778 0 0 1 48 69 60
111.588 90.7513 -56.2125 0 0 1 13 24 23
-71.8332 -4.99058 -57.2118 0.671394 -0.188582 0.716706 73 75 51
5.4785 29.6345 -90.3471 0 0 1 148 144 143
237.544 -38.4464 -24.1959 0 0 1 126 147 93
-3.58163 35.3353 -81.5042 0 0 1 186 184 186
150.711 0.729397 -42.4616 0 0 1 144 153 132
85.1797 92.3156 -78.2661 -0.38332 -0.184727 -0.904954 164 167 165
79.2715 -38.6764 -89.0757 0 0 1 129 135 95
32.5223 250.307 -94.8518 -0.299261 0.944366 0.136438 197 206 209
-26.944 -59.7172 -84.0815 0 0 1 125 117 103
116.93 -30.4862 -66.4003 0 0 1 74 73 55
85.736 62.8401 -74.4731 0 0 1 76 67 58
-1.45476 225.644 -94.5873 -0.00951815 0.0916166 -0.995749 169 163 128
80.7688 295.934 -69.3947 -0.469438 0.139692 -0.871845 167 152 116
-24.4502 -11.8321 -90.3505 0 0 1 84 95 111
78.493 -66.8494 -88.8086 0.473995 0.000678047 -0.880527 195 190 171
-44.8693 -34.9746 -78.5799 0 0 1 116 94 77
91.797 9.91305 -75.2622 0 0 1 123 112 107
98.0276 290.849 -74.2423 0 0 1 72 86 82
43.2009 220.748 -94.7439 0 0 1 213 215 218
-112.851 335.962 -98.0368 0 0 1 30 41 35
-11.3391 165.602 -95.4257 0.467908 0.670466 0.575793 154 146 120
-78.4178 62.0207 -67.5741 0 0 1 20 28 23
134.245 90.7929 -48.526 0 0 1 37 38 40
-71.0909 207.608 -84.5483 0 0 1 128 148 86
202.622 -9.33682 -27.2264 -0.646494 -0.694051 -0.316763 155 153 130
-17.6583 261.324 -94.6422 0.447721 0.887763 0.106881 187 187 188
-111.746 15.4985 -56.6464 0 0 1 9 13 12
-124.496 257.173 -98.8408 0 0 1 9 12 12
29.5852 -31.2354 -89.857 -0.182258 0.734977 0.653139 121 130 88
25.24 333.348 -91.4698 0 0 1 54 68 49
122.562 31.9117 -50.5102 0 0 1 147 177 113
91.4401 26.9529 -67.7821 0 0 1 172 156 123
77.5103 162.493 -60.1636 0 0 1 86 89 81
-149.114 183.387 -90.0789 0 0 1 133 135 95
22.2233 21.8087 -90.4061 0.802805 -0.127163 -0.582524 148 148 151
28.9212 330.536 -92.024 0 0 1 24 37 29
197.647 -78.4879 -42.3795 -0.115098 0.0607654 -0.991494 163 166 167
-85.1767 -33.1914 -74.3753 0.588723 -0.0641834 0.805783 183 176 162
36.0359 -99.5991 -78.7631 0.12909 0.07012 -0.989151 167 170 174
-54.3055 -88.7659 -71.7077 0 0 1 42 48 35
146.491 28.7373 -24.4325 0 0 1 129 161 86
63.5705 -44.6606 -89.2699 -0.0238805 0.725934 -0.68735 95 101 56
30.544 -34.7257 -89.6345 0 0 1 19 19 19
-28.9284 -98.6295 -79.4462 -0.13804 -0.310919 -0.940358 173 176 180
181.516 34.5434 -37.1919 0 0 1 188 229 151
9.95333 -98.9169 -79.006 0.0292455 0.0726009 -0.996932 123 129 129
195.542 -96.3478 -41.733 0 0 1 166 163 162
56.4599 77.5715 -87.5265 0 0 1 44 47 39
-19.4513 -65.5069 -84.0936 0 0 1 149 153 148
185.639 -68.6711 -44.0715 0.278226 0.0445446 -0.959482 140 143 148
-36.4119 308.094 -94.5573 0 0 1 52 50 43
67.0948 310.095 -77.1043 0 0 1 29 43 42
-92.9879 17.4096 -65.5933 0 0 1 105 103 93
-26.546 49.7762 -90.3493 0.767151 0.483665 -0.421364 67 74 88
63.6562 152.887 -79.0896 0 0 1 121 118 75
-70.0564 -89.399 -78.6487 -0.475237 0.397115 -0.785143 24 20 15
-32.6271 -23.5845 -84.4613 0 0 1 186 173 137
-95.5136 -85.7742 -86.7117 -0.688625 0.64332 0.334568 208 210 204
-126.12 57.1987 -67.4902 0 0 1 51 77 45
128.886 313.472 -76.8224 0 0 1 81 88 95
-17.9076 57.1895 -89.9911 0 0 1 48 63 79
79.8253 -90.9099 -82.6141 0 0 1 13 22 18
22.3663 80.1304 -91.5863 -0.0705061 0.19346 -0.978571 96 115 70
164.635 -87.8102 -43.6685 0 0 1 55 41 33
42.3832 46.8472 -91.2177 0 0 1 161 162 165
-73.5812 261.521 -94.6452 0 0 1 199 204 207
-77.2763 -63.8227 -78.2715 0.044335 -0.211568 -0.976357 105 91 72
-13.2295 -96.7061 -77.8231 0.667456 -0.590946 -0.453085 102 126 149
70.899 132.149 -74.2998 -0.679805 -0.732157 0.0425643 0 0 0
-58.5651 -71.4262 -78.5763 0.528931 -0.844659 0.0823599 71 65 45
17.2486 13.8215 -90.4466 -0.620355 0.771426 0.141641 146 145 145
53.1854 27.9112 -90.8555 -0.356915 -0.289065 -0.888286 177 175 178
1.29162 292.664 -94.5294 -0.46991 -0.505509 -0.723634 192 205 134
4.7471 297.29 -94.6024 0 0 1 152 165 112
36.3757 252.08 -94.8431 -0.629323 0.545369 -0.553646 164 162 125
-113.68 129.586 -73.859 -0.295742 -0.927333 0.229327 131 125 118
30.702 39.3941 -90.0144 0 0 1 149 184 165
74.0771 76.5902 -79.0958 0.217798 0.614531 -0.758232 167 167 172
94.2934 220.989 -83.9009 0 0 1 21 27 20
-103.438 46.87 -54.0754 -0.0467636 0.232169 0.971551 153 176 105
58.8292 307.544 -76.61 0.859112 0.230682 0.456849 121 130 105
148.939 83.7674 -43.0199 0 0 1 76 67 62
29.2741 275.506 -94.7586 0 0 1 215 216 218
43.273 160.403 -91.8677 0 0 1 64 63 49
-11.8967 159.836 -96.4344 -0.120409 -0.362134 -0.924316 108 105 85
-43.9088 -57.0571 -79.0321 0 0 1 72 69 42
-70.4345 143.262 -89.8603 0.0166098 0.716589 -0.697298 61 79 35
11.53 182.911 -93.91 -0.073386 0.997296 -0.00390311 48 44 37
-99.4221 208.627 -88.4161 0 0 1 47 48 42
96.562 281.672 -72.4027 0 0 1 154 160 127
161.286 197.832 -88.8171 0 0 1 18 22 23
-91.8662 -77.7823 -81.2076 0 0 1 191 192 179
182.862 -36.2846 -40.117 0 0 1 193 184 105
-82.5422 193.156 -82.9721 0.975904 -0.081252 -0.20251 41 54 36
167.426 -0.882109 -32.2905 0 0 1 17 27 22
-91.7148 -78.4042 -81.7261 0 0 1 188 185 170
51.939 -23.8805 -89.8191 0 0 1 134 135 137
61.6802 12.6821 -89.7333 0 0 1 92 220 205
225.341 -35.1695 -23.7848 0 0 1 39 42 35
-86.0077 -28.5496 -71.5702 -0.583719 -0.689649 0.428551 176 175 163
127.831 219.831 -78.9765 0.61329 -0.746429 -0.2583 176 154 107
105.908 213.494 -79.6613 0 0 1 112 103 91
-63.818 -95.1025 -73.0371 0 0 1 8 12 9
-93.1242 6.40244 -53.7626 0.149326 0.466154 -0.87201 27 37 23
23.9379 329.899 -91.0416 0 0 1 140 168 119
17.067 323.089 -87.2092 0 0 1 127 148 109
63.0909 -5.04226 -90.0925 0.211358 0.944795 0.250381 157 158 160
0.460129 -52.8316 -89.1831 -0.149793 0.379999 0.912777 172 173 176
77.4456 218.011 -79.1468 0 0 1 104 87 65
-64.5322 318.827 -87.0255 0.1875 0.981536 0.0378403 52 63 47
-46.8495 -39.0282 -79.616 0 0 1 101 98 77
7.22095 -24.8228 -89.6114 0 0 1 149 148 150
-95.249 1.34427 -51.5003 -0.260269 0.669882 -0.695354 120 148 86
-105.77 246.362 -95.3199 0 0 1 44 41 27
-2.88022 308.34 -84.064 0 0 1 92 93 69
130.719 41.3212 -42.3287 -0.360856 0.560991 -0.745032 185 167 129
78.5006 314.421 -89.1788 0 0 1 38 43 50
6.03653 211.226 -94.7172 0 0 1 176 190 158
56.4673 -19.7899 -89.9253 0.315594 0.946274 -0.0704652 141 144 148
-58.2738 95.2456 -91.9804 0 0 1 186 191 191
114.769 -6.66469 -63.1166 0 0 1 108 100 77
52.7755 11.0434 -90.4857 -0.250253 -0.186961 -0.949957 150 149 152
49.81 51.6044 -91.2237 0 0 1 135 130 102
-55.8024 84.9757 -91.5061 0 0 1 119 131 103
172.93 -6.05647 -31.066 0 0 1 57 84 58
113.429 61.995 -59.1201 0 0 1 122 112 84
133.381 283.42 -81.172 0.398841 0.464048 -0.79094 137 161 131
89.6179 50.7145 -71.7246 0.899625 0.369855 -0.232125 163 140 127
192.194 -2.455 -27.09 0 0 1 10 25 18
-48.3867 34.2753 -79.8197 0 0 1 147 142 101
-95.7927 -36.5849 -78.2822 0 0 1 99 103 105
39.9986 -62.9041 -88.9001 0 0 1 145 149 148
-14.9044 -29.4463 -89.4448 0 0 1 145 168 163
-72.5154 291.685 -94.5887 0 0 1 215 217 219
-74.0042 9.09069 -55.3657 0 0 1 32 44 26
155.706 332.072 -89.1361 0 0 1 57 64 64
92.4837 83.5276 -70.1616 0 0 1 94 101 71
64.9013 287.418 -74.3757 0.535095 0.838732 0.101003 110 113 76
-67.8659 319.371 -86.6505 0 0 1 82 93 65
-86.5322 187.712 -86.7868 0 0 1 124 151 94
130.753 300.801 -74.5683 0 0 1 34 50 38
-91.3314 8.94786 -54.5123 0 0 1 95 100 96
-79.2617 194.57 -87.8628 0 0 1 11 16 12
-23.2514 160.608 -93.8054 0 0 1 111 104 73
16.1711 106.858 -94.3932 0 0 1 92 92 65
31.4574 326.232 -87.9617 0 0 1 106 137 93
-8.96307 272.398 -94.6457 0 0 1 137 147 86
14.338 112.498 -95.3527 0 0 1 96 84 64
106.833 5.8 -66.6171 0 0 1 64 50 43
48.0905 -49.7485 -89.2188 0 0 1 100 96 60
-138.419 38.3413 -53.7094 0 0 1 133 170 99
139.762 85.7986 -45.015 -0.503018 0.432328 -0.748376 56 49 45
-8.04774 -53.3269 -89.0732 0 0 1 111 105 77
-54.3305 327.529 -97.9258 -0.319183 -0.747439 -0.582629 34 50 38
80.7499 101.36 -78.5318 0.935865 -0.328456 -0.127565 199 203 205
-38.8627 166.433 -93.5937 -0.558153 0.808155 -0.188017 187 193 197
-57.9734 208.823 -90.8193 0.861873 -0.461638 0.209918 141 132 85
167.347 126.365 -59.9333 0 0 1 7 12 14
-109.218 51.4622 -58.9117 0.466918 0.0875828 -0.879953 180 153 108
47.9205 35.3477 -90.9109 0 0 1 153 153 157
70.8537 240.678 -93.7715 0 0 1 104 105 103
82.1772 183.337 -65.3061 0 0 1 18 24 22
-74.4285 265.141 -94.8764 0 0 1 204 208 211
-38.2306 81.0547 -91.7505 0 0 1 180 184 180
-113.743 212.817 -83.6842 0 0 1 174 167 113
164.342 178.537 -65.8117 0 0 1 32 55 47
74.8742 330.323 -90.1662 0 0 1 42 44 48
-86.4026 146.935 -82.9919 0 0 1 140 155 123
35.7826 -49.8151 -89.148 0 0 1 99 106 71
111.737 60.9862 -54.3242 0 0 1 150 140 125
-1.49183 83.1486 -91.1824 0 0 1 156 155 160
-43.8263 204.265 -94.7406 0.139929 -0.102055 0.984888 179 195 140
-9.22606 9.07158 -90.3988 0 0 1 164 164 167
162.4 -98.9433 -41.7712 0 0 1 46 67 39
-75.2469 313.973 -87.2312 0 0 1 82 77 75
22.821 87.2681 -91.7195 -0.444057 -0.772916 0.453226 163 163 167
144.367 -57.3876 -60.8085 0 0 1 56 58 48
-87.1288 105.348 -77.3931 0.873612 0.194661 0.445992 83 112 66
-71.9315 278.517 -94.8147 0 0 1 203 208 212
44.5539 241.652 -94.9626 0.740248 -0.0918149 -0.666035 255 255 255
102.201 231.516 -89.7607 0 0 1 46 50 46
111.113 95.7612 -58.1999 0 0 1 36 62 47
-142.847 201.574 -86.1397 0.956728 0.0977418 0.274076 91 83 55
215.55 -20.1992 -28.6124 -0.489132 -0.872107 0.0134253 15 25 22
-23.1843 253.649 -94.6483 0 0 1 178 187 189
-51.4047 -67.3796 -78.6522 0 0 1 70 71 57
-39.5042 180.116 -94.06 0 0 1 192 191 152
-68.7609 145.926 -91.9738 0 0 1 63 98 51
75.4603 -25.8431 -88.6197 0.361872 -0.153289 -0.919539 116 204 205
73.0185 127.337 -72.8518 -0.0809863 0.996591 -0.0157136 203 198 180
126.767 191.566 -69.3614 0 0 1 188 170 127
88.4347 176.747 -58.5543 0 0 1 176 181 121
-43.8435 92.4276 -92.1603 0 0 1 181 190 189
-33.6877 98.766 -91.6277 0 0 1 124 238 215
23.4815 47.4937 -90.7942 0 0 1 108 120 71
-82.1933 18.0934 -55.7675 -0.435881 -0.198932 -0.877743 95 84 80
87.6332 183.985 -61.8881 -0.253324 0.778712 -0.573964 42 50 42
152.849 -27.4291 -52.0324 0 0 1 148 155 99
53.6094 105.386 -88.287 0 0 1 105 100 60
-66.5799 63.016 -77.9211 0 0 1 51 53 44
-29.9247 -55.6471 -83.3442 0.94438 -0.233235 0.231837 148 122 103
122.161 204.454 -71.1962 0 0 1 32 33 25
57.2239 126.72 -81.9058 0 0 1 26 32 23
-83.0164 -72.4601 -78.263 -0.42566 0.323676 -0.845014 110 100 79
-128.529 252.647 -94.9405 -0.515792 -0.0216509 -0.85644 54 73 48
-72.3667 225.667 -89.9966 0 0 1 84 108 68
92.1756 126.693 -60.4283 0 0 1 39 40 38
51.6356 219.191 -94.6698 0 0 1 213 216 219
1.12724 7.29729 -87.5138 0 0 1 232 239 240
-64.1521 -39.4117 -78.049 0 0 1 30 34 39
187.243 52.2533 -36.921 0.362993 0.931494 -0.0235558 0 0 0
108.688 234.508 -86.3999 0 0 1 64 70 47
-72.8512 187.634 -89.9441 -0.406537 0.805859 0.430487 149 157 90
-91.4326 8.51064 -54.1224 0.103773 -0.371 -0.922816 81 83 64
87.9642 37.8158 -74.3225 0 0 1 98 85 72
98.7066 171.687 -58.7758 0 0 1 37 52 50
152.458 137.324 -63.1215 0 0 1 48 59 54
-83.8185 202.697 -91.8243 0 0 1 28 35 28
-76.4755 -40.2944 -78.2505 0 0 1 105 90 75
-61.7127 22.4684 -68.9491 0 0 1 42 40 33
-62.5495 101.758 -86.0784 0 0 1 182 199 170
-54.8684 314.2 -85.9794 0 0 1 184 170 105
52.2288 -17.4807 -89.7859 0 0 1 153 153 151
126.83 36.2653 -47.2156 -0.170291 -0.308353 0.935905 171 161 130
138.362 5.0228 -52.0195 0 0 1 212 200 160
-25.5311 164.791 -93.7052 0 0 1 151 152 93
36.431 313.788 -88.8776 0 0 1 107 120 89
-17.9943 -86.3624 -80.056 0 0 1 76 85 61
-145.028 -13.6612 -78.2334 0.30845 -0.199094 -0.930172 194 188 157
-43.8461 91.9771 -91.9839 0 0 1 198 206 209
109.907 -40.7798 -76.4102 -0.115919 -0.653369 -0.748112 107 94 77
-100.668 -49.849 -78.0731 0.638618 0.0594727 0.767223 43 36 31
-66.3836 155.007 -88.9212 0 0 1 77 105 58
105.434 60.3176 -59.3062 0 0 1 137 136 100
-34.2115 34.6788 -87.6179 0 0 1 157 163 173
-146.395 239.724 -90.3694 0 0 1 21 37 29
38.743 221.789 -94.7666 -0.691948 -0.0484495 0.72032 228 235 238
-30.0512 313.561 -97.9238 0 0 1 48 58 47
0.348171 83.3722 -91.2296 0.93074 -0.252498 -0.264513 158 157 161
-83.2751 93.6467 -76.086 0 0 1 139 171 118
129.281 115.646 -61.5807 0 0 1 11 20 16
81.2268 303.688 -77.7181 0 0 1 104 87 68
3.31795 241.857 -94.6532 0.11973 0.264538 -0.956914 166 171 173
122.328 45.6584 -49.7711 0 0 1 107 133 93
112.447 54.8774 -55.0488 -0.652756 0.730384 -0.201119 127 144 106
74.7979 308.559 -76.3043 0 0 1 48 53 42
17.1151 52.825 -90.7381 0 0 1 126 157 164
27.1832 317.486 -92.4 0 0 1 13 23 24
32.3464 175.381 -93.7061 0 0 1 158 156 161
159.931 102.625 -50.8448 0 0 1 48 62 62
-68.5236 -3.37843 -61.8699 0 0 1 81 84 61
124.94 -67.7397 -74.1044 0.768908 -0.528425 -0.359927 93 88 81
78.8797 318.175 -82.5734 0 0 1 0 0 0
-67.4926 -87.082 -78.5997 0 0 1 50 46 39
33.1944 102.518 -92.205 0 0 1 163 164 170
97.4697 86.3697 -64.0884 0 0 1 23 33 23
3.03145 227.193 -94.611 0 0 1 133 129 91
64.5196 188.735 -79.8667 0.931935 0.332989 -0.143583 29 43 25
42.7471 -44.6021 -89.2679 0.0502751 -0.290169 -0.955654 101 99 58
194.571 -68.6665 -40.384 0 0 1 150 178 120
-63.0857 28.6932 -65.7799 0.680732 -0.243257 -0.690963 94 109 77
4.4755 40.8553 -89.9412 0 0 1 101 133 122
36.4365 180.298 -93.8379 0.445195 -0.749023 0.490679 175 177 181
69.7924 307.76 -73.413 0.0442528 0.928287 0.369223 31 45 36
19.2337 207.384 -94.4537 0.82771 0.37742 0.415272 169 173 125
54.1904 174.599 -85.9741 0 0 1 28 33 42
115.768 93.5982 -60.9647 0 0 1 5 9 8
173.634 -53.6783 -47.5852 -0.0676235 0.355087 -0.932384 164 169 175
10.973 -19.8163 -89.8092 0 0 1 148 159 124
-62.9316 -34.0509 -73.5284 0.621931 -0.212162 -0.753784 177 157 122
-92.7114 123.05 -73.4699 0 0 1 66 85 58
116.523 33.8506 -55.0468 0.322087 0.92242 0.213074 164 173 100
-104.005 269.627 -89.7689 0 0 1 122 120 76
191.34 -55.5221 -37.218 0.857749 -0.159338 -0.488751 213 205 162
-115.067 110.421 -63.8879 0.027792 -0.405778 -0.913549 23 36 30
-29.5787 -30.5497 -85.2747 -0.585032 -0.101221 -0.804669 176 156 122
188.481 -12.9716 -27.8637 0 0 1 180 215 143
126.107 225.433 -78.0471 0 0 1 98 96 66
2.61245 308.663 -83.238 0 0 1 98 106 84
-5.45348 348.815 -97.7203 0 0 1 138 131 100
20.2558 68.9167 -91.3966 0.593422 -0.685304 -0.422148 107 118 78
170.169 37.5032 -31.1245 0 0 1 106 118 78
59.9287 63.5417 -87.1316 0.496357 -0.441095 -0.747706 65 63 58
23.8594 180.714 -93.7672 0 0 1 164 169 134
26.9249 152.915 -93.1958 0 0 1 198 207 208
-103.85 308.8 -84.0408 0 0 1 177 178 106
144.959 124.375 -75.2449 0 0 1 4 8 9
116.461 51.428 -53.405 0.293953 -0.377663 -0.878044 110 115 93
-113.682 109.62 -65.4752 0.793991 -0.511151 0.329093 15 23 16
6.53199 300.503 -94.7799 0 0 1 168 177 138
172.393 213.416 -83.8423 0 0 1 27 31 31
176.733 -41.0529 -38.747 0 0 1 93 88 56
14.3512 314.05 -86.3344 -0.347582 -0.429863 -0.83331 32 45 38
-60.9805 84.3895 -89.4975 0 0 1 59 59 47
-21.0046 184.314 -94.023 0.215878 0.214521 -0.952564 188 187 154
225.956 -82.4943 -30.5941 -0.0766603 0.719281 -0.690476 158 150 113
6.88334 288.926 -94.6242 0.999523 0.0288725 -0.0109565 209 210 212
-106.227 187.98 -81.0674 0.798994 0.503953 -0.328084 43 60 38
106.803 111.551 -65.8984 0 0 1 14 21 21
32.6833 261.102 -94.8302 0 0 1 201 203 200
186.861 -22.0192 -30.4329 0.88329 -0.435105 -0.174593 155 189 129
32.7254 282.738 -94.5812 0 0 1 198 194 163
-63.2646 123.797 -92.4473 0 0 1 191 194 191
59.5594 50.1225 -88.0008 0 0 1 114 104 80
-128.01 71.5907 -77.9553 0 0 1 0 0 0
130 -3.56456 -59.6142 -0.00733227 -0.725422 0.688266 159 166 170
-84.8477 213.969 -88.1077 0 0 1 93 90 49
-113.597 143.475 -74.2177 0 0 1 81 88 61
75.6949 74.6382 -79.2724 0 0 1 168 170 172
-9.70337 271.285 -93.8801 0 0 1 119 219 197
-20.3953 289.446 -90.3458 0 0 1 0 0 0
-135.924 176.258 -85.0902 0 0 1 139 164 95
-31.0336 54.3349 -90.3874 0.64795 0.744554 0.160623 154 154 156
135.76 -4.01897 -56.0852 0 0 1 63 72 38
-54.6299 -51.6935 -72.7413 0 0 1 85 120 56
-16.5849 152.47 -95.5413 0.34042 0.289691 -0.894535 174 166 130
27.1559 -93.4452 -79.4502 0 0 1 55 64 41
102.504 76.8041 -61.6789 0.949175 0.31326 0.0305876 39 57 36
92.8517 178.076 -59.3819 0 0 1 110 117 87
-37.3715 253.63 -94.7957 0 0 1 126 138 81
4.70517 208.694 -94.6324 0.253495 0.309852 -0.916369 155 179 198
-91.0165 4.35094 -61.5145 0.75604 0.442007 0.482736 57 73 57
-99.6856 51.0484 -62.8185 0 0 1 46 70 42
70.1256 138.454 -70.2486 0 0 1 144 173 109
59.1718 324.352 -88.9102 0 0 1 87 90 49
-43.3543 189.377 -94.4047 -0.469043 0.883121 0.00983741 163 159 117
40.4194 64.9376 -91.4304 0 0 1 160 160 164
154.292 145.192 -65.6612 -0.565331 -0.574305 0.592094 21 44 41
100.127 179.387 -62.7296 0 0 1 53 62 64
184.878 -35.9036 -30.5937 -0.188051 0.336913 -0.922565 190 177 100
92.8143 184.912 -63.8505 0.067735 -0.976482 -0.204684 62 71 48
207.483 -76.7572 -35.702 0 0 1 33 36 39
75.0378 -0.728024 -85.3787 -0.296457 -0.15717 -0.942025 127 113 86
-128.933 90.2085 -72.2794 0 0 1 93 98 88
41.4737 284.056 -86.4582 0 0 1 102 103 102
90.5988 -28.6709 -81.516 0.659957 0.49759 -0.562905 75 58 46
-66.4856 -78.7402 -78.5788 0 0 1 37 35 29
141.916 128.334 -71.535 0.483927 0.438889 -0.757094 9 14 14
-26.4609 -10.1449 -90.485 0.305644 -0.882432 0.357625 156 159 154
63.1887 67.4348 -85.2198 0 0 1 92 94 59
-17.4537 190.425 -94.0853 0.918592 0.0917051 0.38442 166 177 128
-2.90072 205.233 -94.6628 0 0 1 170 171 177
-86.5054 -36.3313 -78.218 0 0 1 188 181 162
47.5254 322.489 -88.3665 0 0 1 0 0 0
161.037 201.766 -91.355 0 0 1 25 29 28
115.505 -9.28057 -64.346 0 0 1 63 80 54
38.1731 -91.5223 -80.7882 0.91197 -0.255845 -0.320708 19 21 24
176.269 -30.6198 -32.4204 0 0 1 133 168 101
6.30735 104.705 -94.5792 0 0 1 75 71 66
-72.7664 242.22 -94.6413 0 0 1 83 75 62
4.59724 6.76201 -90.3751 0 0 1 218 215 206
31.6065 342.88 -89.3771 0 0 1 182 209 141
161.746 47.5038 -33.8531 0 0 1 14 14 16
15.8243 298.611 -94.7956 0.728532 0.479505 0.489199 178 171 141
-94.1794 206.756 -88.8624 0.143536 -0.0275787 -0.989261 93 113 81
-75.339 178.04 -89.7733 0 0 1 46 59 39
95.3417 242.15 -83.2605 0 0 1 91 99 56
100.662 297.6 -81.4656 0 0 1 39 42 38
34.1712 25.157 -90.1286 0 0 1 28 27 38
197.648 -8.29275 -30.82 0 0 1 79 84 86
-11.9681 88.7034 -91.2256 -0.31965 0.70773 0.630034 160 160 165
-94.4553 154.39 -80.4952 0 0 1 122 141 90
116.627 -59.7733 -71.9279 0 0 1 13 22 15
-13.4272 248.875 -94.2038 0.712378 -0.415793 0.565362 96 116 105
177.719 13.7183 -33.7533 0.057619 0.541681 -0.838607 13 29 16
-59.2784 -2.94615 -61.1911 0 0 1 44 60 37
48.4946 283.698 -88.9148 -0.247188 -0.0964359 -0.964157 62 64 53
174.116 -16.3738 -32.2504 0.440211 0.616727 0.652582 0 0 0
-26.6452 198.834 -94.3341 0 0 1 161 171 173
31.0434 -88.8684 -81.7688 0 0 1 20 27 20
10.4286 -1.34348 -90.271 0 0 1 162 162 164
14.9432 -58.5341 -89.1706 0.510589 -0.773396 -0.37571 158 161 165
102.075 298.288 -86.6425 0 0 1 20 29 27
-65.6057 -65.6543 -74.8742 0 0 1 123 150 74
-83.9063 254.251 -88.6452 0 0 1 42 44 33
82.5356 25.8256 -79.8403 0 0 1 94 87 68
224.241 -83.0209 -36.9464 0.676449 0.095303 -0.730297 137 130 101
223.343 -51.421 -29.5836 0 0 1 120 104 76
92.7734 281.119 -71.9463 0 0 1 106 139 88
-98.0413 53.0025 -62.8024 0 0 1 32 49 25
-124.646 208.996 -85.5139 0 0 1 62 65 50
140.199 116.03 -71.6451 -0.347887 0.0187796 -0.937349 7 11 15
-71.4174 -81.5247 -72.1873 0 0 1 40 64 32
101.429 187.153 -69.1904 0 0 1 18 26 27
-12.1477 -90.5211 -79.3476 0.08041 -0.232648 0.969231 28 51 65
-15.9875 20.596 -90.3864 0 0 1 125 123 122
-13.1056 87.9077 -91.2293 0 0 1 160 162 167
105.531 -77.0654 -78.3586 0.704105 -0.337899 -0.624548 68 76 46
151.698 255.989 -97.1893 0 0 1 33 48 30
25.6394 18.4999 -90.4052 0 0 1 146 146 149
-51.926 101.887 -92.4336 0 0 1 219 227 227
-68.4139 -60.6925 -77.88 -0.692005 0.698595 -0.18192 114 109 84
