ply
format ascii 1.0
comment Created by Open3D
element vertex 1128
property double x
property double y
property double z
property double nx
property double ny
property double nz
property uchar red
property uchar green
property uchar blue
end_header
-32.507 195.349 -94.3229 0 0 1 190 194 199
91.3941 -6.69497 -80.5742 0 0 1 185 176 177
173.295 -3.36016 -32.7702 0 0 1 13 23 19
-105.194 -78.0393 -88.482 0 0 1 154 149 133
-111.115 325.819 -94.0085 0 0 1 28 38 30
-39.6491 299.268 -90.6044 0 0 1 150 129 102
-23.8358 139.311 -94.978 0 0 1 137 117 72
162.574 -10.2929 -39.7155 0 0 1 71 68 64
-30.6127 79.5301 -91.62 0 0 1 83 191 234
-129.281 223.721 -90.0547 0 0 1 32 42 41
144.043 35.8926 -35.1117 0 0 1 62 67 37
-98.5538 311.216 -85.5959 0 0 1 139 160 96
130.635 226.812 -86.9493 0 0 1 23 25 21
-7.53096 26.8463 -87.581 0 0 1 230 236 233
-83.4265 206.073 -92.7231 0 0 1 19 27 21
167.673 217.432 -91.5698 0 0 1 21 30 29
147.644 225.449 -89.7484 0 0 1 88 136 81
-99.796 4.98362 -51.368 0 0 1 32 45 36
-95.1261 71.1737 -70.5905 0 0 1 33 41 25
26.4253 11.2603 -90.3088 0 0 1 150 151 155
66.544 193.325 -79.5205 0 0 1 26 37 27
95.601 45.087 -70.3306 0 0 1 163 159 159
80.527 187.919 -67.6159 0 0 1 14 24 23
9.47804 242.9 -94.6855 0 0 1 158 159 164
101.309 257.701 -77.2683 0 0 1 130 147 104
-19.8887 -36.5026 -88.3923 0 0 1 182 175 156
14.1252 316.251 -86.3921 0 0 1 64 78 67
91.6772 289.548 -69.3893 0 0 1 74 73 46
-80.0354 -47.9364 -77.9886 0 0 1 73 66 50
-130.788 237.834 -98.1299 0 0 1 46 65 46
-44.6133 201.244 -93.6971 0.321394 0.373356 0.870236 168 178 130
148.519 -85.8275 -59.2214 0 0 1 15 19 20
-86.0776 -85.4464 -82.0351 0 0 1 100 104 70
-17.9716 297.135 -94.405 0 0 1 14 21 21
25.5281 287.261 -94.6583 0 0 1 207 209 209
141.709 -41.8648 -58.5979 0 0 1 152 165 93
-97.719 -43.6533 -78.2616 0 0 1 46 46 42
-100.037 163.401 -78.2829 0 0 1 49 61 46
-28.7717 173.222 -93.8641 0 0 1 177 167 140
127.866 112.769 -61.2374 0 0 1 8 14 12
-38.0626 148.881 -93.3441 0 0 1 183 186 170
-63.7478 247.577 -94.8768 0 0 1 205 206 209
-29.2907 314.598 -99.31 0 0 1 50 64 54
67.682 168.767 -73.9898 0 0 1 28 30 24
-88.4986 161.865 -84.0898 0 0 1 65 63 44
153.116 219.328 -97.3282 0 0 1 62 72 53
-43.325 -79.7167 -79.2845 0 0 1 107 93 70
50.8795 153.7 -85.1141 0 0 1 61 62 61
-50.9171 61.0057 -87.2679 0 0 1 156 142 110
139.682 72.9935 -42.4772 0 0 1 23 23 23
-22.689 175.807 -93.9317 0 0 1 165 159 102
-15.3807 64.1664 -90.4614 0 0 1 45 46 62
-21.2713 253.127 -94.5472 0 0 1 176 186 188
223.747 -32.2838 -27.6528 0 0 1 76 76 70
-47.8683 187.548 -92.9436 0 0 1 175 171 129
122.043 -31.427 -58.2012 0 0 1 130 155 111
58.7842 175.224 -80.0183 0 0 1 29 33 24
52.4439 275.49 -84.1917 0 0 1 104 114 76
141.651 -27.5959 -54.5783 0 0 1 51 74 43
-54.1186 181.341 -91.9065 0 0 1 75 79 57
-91.7615 28.1734 -59.8094 0 0 1 102 132 80
-49.9219 236.637 -94.9776 0 0 1 182 188 187
20.9825 165.018 -93.3464 0 0 1 169 171 128
93.3644 59.369 -73.0158 0 0 1 141 151 158
116.595 -17.259 -55.577 0 0 1 82 98 61
165.827 41.2721 -30.146 0 0 1 12 20 16
152.141 -54.4433 -45.7821 0 0 1 114 134 86
86.5393 97.9399 -76.2812 0 0 1 32 35 32
1.55521 -58.2661 -89.0667 0 0 1 166 169 173
-140.682 87.1438 -65.7874 0 0 1 37 50 34
94.3689 259.113 -77.7557 0 0 1 96 113 74
110.802 289.798 -73.9491 0 0 1 52 81 59
95.098 109.039 -59.6592 0 0 1 139 167 100
-8.99249 81.8184 -91.2577 0 0 1 159 164 171
224.954 -17.5421 -26.4259 0 0 1 151 192 120
102.584 198.814 -71.0735 0 0 1 89 81 69
72.7693 -30.4567 -89.3384 0 0 1 155 163 163
-21.8971 -72.8037 -82.2293 0 0 1 106 144 118
-60.6917 105.998 -92.2197 0 0 1 197 202 201
123.573 270.283 -82.3507 0 0 1 32 40 41
116.32 187.447 -64.2257 0 0 1 141 130 88
4.91635 -98.0721 -79.1367 0 0 1 186 186 178
48.1572 184.853 -94.1871 0 0 1 111 122 106
-51.3627 -76.2303 -78.393 0 0 1 35 35 29
112.42 -35.874 -74.3436 0 0 1 80 93 60
112.257 122.853 -62.509 0 0 1 106 142 91
4.2578 301.092 -94.6394 0 0 1 211 204 182
46.4532 322.589 -89.3723 0 0 1 35 39 36
-60.0247 -60.259 -77.2497 0 0 1 57 77 39
-110.782 142.738 -73.503 0 0 1 67 73 59
73.7515 6.57015 -79.6281 0 0 1 74 82 53
37.2215 269.985 -94.6656 0 0 1 220 225 228
-54.1602 73.2391 -88.829 0 0 1 116 106 81
58.3542 257.016 -93.9291 0 0 1 103 110 117
150.168 15.4141 -39.164 0 0 1 73 68 51
-20.7556 254.659 -94.5147 0 0 1 176 184 186
46.0748 151.145 -88.6143 0 0 1 76 65 51
-58.8905 5.59639 -61.7684 0 0 1 62 81 51
-128.374 93.9707 -65.0309 0 0 1 172 177 138
-10.7635 -44.8042 -89.29 0 0 1 131 143 99
-4.08575 168.465 -96.5315 0 0 1 82 80 67
-34.0513 251.989 -94.657 0 0 1 112 115 82
2.47495 -1.7496 -90.2874 0 0 1 132 128 127
78.4998 2.80892 -81.9652 0 0 1 78 77 75
-20.365 -75.1683 -83.2622 0 0 1 127 131 116
29.7222 280.487 -94.9164 0 0 1 217 218 220
29.0334 125.442 -92.687 0 0 1 178 179 183
180.471 29.7267 -38.0579 0 0 1 199 199 149
-72.8124 221.481 -88.1403 0.356672 0.258336 0.897801 101 94 70
4.13836 212.001 -94.7553 0 0 1 143 147 114
45.6364 26.6857 -90.7564 0 0 1 149 152 157
-90.4355 130.413 -78.833 0 0 1 70 82 56
16.4983 149.3 -92.5782 0 0 1 81 104 116
-17.716 -64.7465 -84.1637 0 0 1 154 173 166
-66.307 144.769 -90.8204 0 0 1 73 88 62
77.4505 122.331 -72.3153 0 0 1 126 150 117
96.0139 91.0291 -62.8997 0 0 1 123 147 100
29.2202 324.111 -90.7693 0 0 1 23 39 32
133.313 307.173 -73.7559 0 0 1 87 101 68
135.008 157.317 -83.2975 0 0 1 51 53 43
-101.515 39.5074 -57.7485 0 0 1 93 98 97
-52.5375 -0.399615 -65.0034 0 0 1 93 86 70
124.132 312.763 -77.2678 0 0 1 25 43 39
-106.749 191.284 -81.6828 0 0 1 43 57 44
-77.5261 105.715 -81.7162 0 0 1 188 193 93
94.6415 281.481 -71.7866 0 0 1 218 198 139
-116.583 20.6931 -49.2833 0 0 1 154 172 108
-126.362 -25.6694 -76.3901 0 0 1 132 153 110
-44.6662 124.247 -92.7999 0 0 1 179 185 127
98.7042 309.67 -83.7146 0 0 1 65 76 66
34.2529 -92.6947 -78.4881 0 0 1 75 86 60
222.374 -54.9719 -21.8758 0 0 1 147 141 118
-120.275 188.13 -75.9851 0 0 1 58 72 37
82.1698 97.541 -78.3966 0 0 1 187 191 190
1.30604 66.9781 -90.9906 0 0 1 148 149 152
132.546 -53.9117 -54.6436 0 0 1 166 167 128
-96.5254 92.8397 -74.1389 0 0 1 40 41 35
14.3314 94.2758 -91.4405 0 0 1 158 158 121
60.4347 147.231 -79.1799 0 0 1 93 83 65
-40.3223 240.74 -94.8321 0 0 1 186 191 187
6.87845 48.7657 -90.7632 0 0 1 147 146 148
-109.551 14.9657 -58.5132 0 0 1 16 25 18
-89.0288 208.263 -88.7529 0 0 1 0 0 0
96.7447 218.878 -78.1543 0 0 1 114 115 86
-66.8495 17.9788 -62.343 0 0 1 9 12 11
-20.0441 -72.5838 -81.5554 0 0 1 81 87 62
-79.1861 31.192 -59.8805 0 0 1 43 72 44
95.1981 318.511 -83.1224 0 0 1 73 106 66
79.7838 -39.435 -89.0667 0 0 1 123 121 85
63.7728 161.08 -79.1754 0 0 1 159 142 111
21.6616 109.571 -91.528 0 0 1 159 191 210
152.028 18.7654 -31.3046 0.224229 0.35211 0.908702 128 126 89
152.971 -55.5437 -45.7997 0 0 1 158 170 118
1.85561 241.181 -94.6 0 0 1 161 185 193
65.8774 277.12 -75.5775 0 0 1 126 128 95
167.033 193.28 -86.197 0 0 1 35 41 48
154.483 289.395 -79.017 0 0 1 192 197 165
-98.2505 -52.8446 -77.0143 0 0 1 126 123 99
-60.5777 -63.2591 -75.6322 0 0 1 107 100 76
170.023 -65.1986 -47.5025 0 0 1 61 64 50
100.797 186.341 -60.9383 0 0 1 126 139 138
40.3843 307.441 -88.3577 0 0 1 143 157 116
121.773 103.619 -61.8437 0 0 1 18 29 31
25.5151 -40.2017 -89.4685 0 0 1 124 112 74
108.368 59.4362 -56.6519 0 0 1 113 114 81
84.284 -23.7835 -84.216 0 0 1 71 90 79
39.4622 -4.93932 -90.08 0 0 1 70 94 52
110.424 -4.63604 -65.5916 0 0 1 53 55 52
65.7391 309.479 -77.7299 0 0 1 18 24 21
76.3688 248.657 -81.9115 0 0 1 108 111 80
-47.3988 25.5134 -81.5591 0 0 1 113 103 77
74.9583 74.7249 -79.2539 -0.0115632 -0.269612 0.9629 168 166 170
-35.4929 -56.7745 -77.7597 0 0 1 154 146 128
97.4258 300.669 -77.1183 0 0 1 29 44 40
216.959 -98.6367 -40.7925 0 0 1 74 87 51
174.369 21.3273 -35.5409 0 0 1 63 103 72
176.458 35.6815 -29.7974 0 0 1 110 165 116
-69.7793 164.604 -87.9429 0 0 1 109 109 57
75.1621 205.073 -77.9756 0 0 1 16 18 16
-47.8879 329.358 -95.2388 0 0 1 101 122 85
-89.2273 173.425 -91.1777 0 0 1 0 0 0
-47.0645 278.324 -94.7007 0 0 1 198 200 200
64.386 -82.5444 -83.8784 0 0 1 33 37 24
85.1016 133.58 -62.7214 0 0 1 69 77 55
205.292 -74.3087 -36.3662 0 0 1 169 151 128
161.966 12.684 -33.2789 0 0 1 149 156 72
95.3336 185.357 -64.5054 0 0 1 102 120 95
195.114 33.5518 -31.0459 0 0 1 179 189 120
62.0246 271.708 -80.3769 0 0 1 68 81 57
104.478 104.693 -60.2008 0 0 1 33 51 31
9.89247 -50.1677 -89.2445 0 0 1 152 159 166
33.3057 287.428 -90.2244 0 0 1 187 198 168
-101.588 121.116 -70.5329 0 0 1 46 53 44
-39.1106 333.927 -96.9167 0 0 1 108 126 89
-22.855 -2.94951 -90.5821 0 0 1 166 169 170
1.2978 16.9003 -90.3435 0 0 1 218 215 208
-93.6872 41.4698 -77.651 0 0 1 55 61 59
27.2766 199.709 -94.1543 0 0 1 189 190 152
78.003 95.0895 -78.5082 0 0 1 185 188 186
-124.939 249.763 -99.4159 0 0 1 17 22 22
-28.2052 134.357 -94.7979 0 0 1 135 122 91
232.119 -57.6806 -20.83 0 0 1 14 20 18
-81.5947 3.37939 -60.208 0 0 1 96 114 77
93.6626 -20.9883 -80.1412 0 0 1 148 146 151
48.7251 -25.6179 -89.7552 0 0 1 150 146 141
-42.8509 284.603 -94.603 0 0 1 215 217 219
-68.6016 -93.5475 -71.9248 0 0 1 51 46 36
89.729 -37.4315 -83.2541 0 0 1 82 103 87
-48.7882 340.274 -95.8403 0 0 1 48 51 43
93.7779 191.475 -63.4201 0 0 1 10 14 15
83.688 238.229 -84.8961 0 0 1 156 140 120
214.892 -9.67722 -25.3933 0 0 1 25 40 27
-40.4533 234.296 -94.8294 0 0 1 188 191 187
-100.543 186.755 -81.0915 0 0 1 164 162 144
22.7081 -44.5094 -89.3994 0 0 1 95 105 60
-88.3189 272.074 -93.6072 0 0 1 125 239 216
55.2353 165.128 -83.2976 0 0 1 28 27 28
172.73 16.6768 -34.6762 0 0 1 13 25 15
-26.5943 223.995 -94.6483 0 0 1 172 174 135
-59.5903 155.825 -91.5098 0 0 1 78 78 51
-12.5012 103.116 -94.1251 0 0 1 100 93 70
50.3458 -85.4503 -81.9112 0 0 1 101 133 65
-96.9504 224.235 -91.1015 0 0 1 68 69 38
23.2087 -41.7629 -89.1754 0 0 1 127 119 129
65.1682 114.61 -78.2955 0 0 1 132 153 120
163.184 100.429 -46.4593 0 0 1 75 89 93
-73.0377 110.505 -78.96 0 0 1 0 0 0
173.789 3.19923 -33.9371 0 0 1 11 27 18
147.345 -39.2231 -49.1253 0 0 1 96 95 82
86.033 3.65205 -80.7644 0 0 1 151 150 154
-97.7523 16.5524 -51.0048 0 0 1 22 32 23
38.5257 347.27 -91.2577 0 0 1 124 148 92
68.741 324.164 -88.1064 0 0 1 0 0 0
-78.4355 -44.4666 -78.16 -0.092962 -0.0734052 0.99296 106 99 68
-36.8542 305.444 -97.5757 0 0 1 100 91 64
-66.5791 68.4138 -74.5845 0 0 1 100 121 87
-85.0057 -98.4607 -81.7996 0 0 1 38 38 37
-124.979 111.566 -70.9838 0 0 1 111 123 93
163.007 -20.5216 -32.5072 0 0 1 166 151 95
-90.7989 45.3689 -67.97 0 0 1 47 51 51
123.43 233.201 -93.6934 0 0 1 7 11 10
-105.995 279.758 -94.5097 0 0 1 18 25 22
-73.0814 58.9025 -68.5708 0 0 1 199 193 109
-67.8096 -31.3697 -60.9244 0 0 1 108 111 81
-63.2103 139.076 -92.5024 0 0 1 99 89 65
-73.1945 259.227 -94.7375 0 0 1 197 203 205
107.275 190.574 -72.8925 0 0 1 163 140 101
-115.775 -67.9279 -93.0543 0 0 1 116 120 119
-36.786 42.6132 -87.599 0 0 1 171 178 190
37.458 329.157 -89.488 0 0 1 65 92 66
222.631 -78.5955 -27.0451 0 0 1 83 85 49
134.364 229.678 -91.2484 0 0 1 23 25 24
64.276 90.624 -76.8099 0 0 1 138 128 80
127.211 221.308 -80.0018 0 0 1 86 79 63
-25.9464 268.984 -94.7494 0 0 1 156 159 160
-70.1479 23.9422 -62.5576 0 0 1 17 26 23
-89.8041 227.993 -92.2152 0 0 1 25 35 25
-25.0214 -45.7603 -86.7086 0 0 1 172 161 146
-54.1096 203.589 -95.3005 0 0 1 123 109 80
38.4638 116.341 -92.6416 0 0 1 176 176 174
15.6502 282.433 -94.7727 0 0 1 189 180 175
-91.3669 -44.8551 -77.2997 0 0 1 116 115 74
-44.1178 311.328 -95.5559 0 0 1 25 24 19
-57.9854 95.0492 -91.9322 0 0 1 184 189 188
196.966 -64.7848 -37.5086 -0.169504 -0.0639889 0.98345 188 165 140
-135.774 227.858 -92.4085 0 0 1 42 70 42
187.875 -4.28831 -33.8868 0 0 1 17 21 23
-41.8791 49.0846 -87.6755 0.0526627 -0.311055 0.948932 160 168 180
-119.14 110.909 -62.0512 0 0 1 128 142 88
-38.2567 107.063 -92.6979 0 0 1 95 88 61
116.926 255.499 -82.3988 0 0 1 217 207 138
-91.5918 136.128 -76.8543 0 0 1 152 151 94
128.29 72.8588 -45.3262 0 0 1 75 44 28
-131.187 302.783 -96.2895 0 0 1 32 42 32
193.055 -60.3734 -38.1526 0 0 1 212 208 181
147.502 56.2866 -31.9931 0 0 1 93 82 75
112.929 183.847 -62.9782 0 0 1 174 164 113
-104.262 335.002 -92.5538 0 0 1 83 110 76
-29.0131 -61.9376 -81.9193 0.091986 -0.126587 0.987681 58 79 61
-4.97009 246.104 -94.5324 0 0 1 107 101 80
46.9252 278.015 -84.1949 0 0 1 54 64 43
34.802 325.068 -91.4302 0 0 1 28 42 31
-78.9297 251.527 -88.3235 0 0 1 39 51 38
-50.6408 -38.8854 -78.9948 0 0 1 39 41 37
-120.151 256.293 -93.7165 0 0 1 60 79 45
182.03 9.57677 -31.5605 0 0 1 171 208 140
170.691 27.4441 -27.3936 0 0 1 116 148 99
-98.8008 269.843 -94.9461 0 0 1 61 57 54
-78.0989 -40.4959 -76.0456 0 0 1 40 59 35
29.9053 -30.9106 -89.7226 0 0 1 113 118 77
-84.8891 -60.121 -77.4422 0 0 1 99 120 62
52.8746 155.32 -83.2875 0 0 1 43 35 32
-10.4985 12.3189 -90.5163 0 0 1 167 166 171
152.088 113.572 -55.5849 0 0 1 44 70 49
87.6273 -28.7646 -83.6937 0 0 1 99 87 66
-145.556 115.066 -72.8387 0 0 1 36 45 34
-59.1821 226.866 -94.3936 0 0 1 112 107 80
167.306 23.9149 -28.2729 0 0 1 132 171 110
-36.2016 313.802 -94.3879 0 0 1 29 37 28
217.573 -33.2576 -23.0941 0 0 1 100 112 76
153.104 148.645 -74.7187 0 0 1 37 44 47
-6.82266 53.7105 -90.3836 0 0 1 177 177 175
93.9044 -61.126 -84.2614 0 0 1 120 134 83
2.97823 228.277 -94.6092 0 0 1 136 136 93
167.64 187.642 -73.8659 0 0 1 13 28 28
-145.599 238.357 -89.3661 0 0 1 14 26 19
-81.8135 286.007 -94.6116 0 0 1 213 216 217
126.665 -59.3123 -72.7493 0 0 1 96 94 69
139.947 -92.6201 -64.7553 0 0 1 16 22 22
-34.4614 305.876 -97.4577 0 0 1 80 85 77
-94.0257 -58.4433 -75.1546 0 0 1 0 0 0
-52.0726 -48.2162 -78.6984 0 0 1 35 33 30
149.483 202.558 -95.2392 0 0 1 42 48 39
10.7138 73.7201 -91.118 0 0 1 148 147 151
-57.4308 208.353 -93.5252 0 0 1 157 153 110
-31.5388 113.166 -95.4695 0 0 1 142 127 80
-97.1686 156.387 -78.5567 0 0 1 34 46 34
101.315 243.744 -82.6989 -0.157075 -0.328282 0.931428 74 66 40
-100.111 98.9038 -73.6825 0 0 1 44 54 45
-112.201 230.957 -95.3909 0 0 1 70 93 64
72.7008 48.6344 -79.9877 0 0 1 220 219 224
124.081 263.533 -78.601 0 0 1 131 136 90
77.6135 242.483 -90.8714 0 0 1 30 34 30
-7.39633 -19.1742 -89.8912 0 0 1 113 114 119
90.1193 85.6283 -67.8899 0 0 1 218 217 171
-119.607 53.704 -64.4039 0 0 1 24 40 32
-144.91 210.159 -86.6885 0 0 1 207 178 132
84.8991 48.5149 -75.559 0 0 1 87 83 66
121.39 -95.2949 -71.0896 0 0 1 25 38 35
101.824 228.78 -86.8552 0 0 1 79 75 50
-57.6379 -3.80423 -58.439 0 0 1 52 65 41
-86.0067 319.448 -94.5511 0 0 1 102 98 65
126.756 102.838 -54.6202 0 0 1 38 39 38
-89.3811 -45.8458 -74.7332 0 0 1 125 132 89
-3.57852 213.77 -94.6257 0.0169316 0.442858 0.896432 178 173 144
61.0293 298.323 -79.3372 0 0 1 44 64 47
156.45 24.6038 -29.803 0 0 1 164 171 102
80.433 238.32 -93.6893 0 0 1 25 27 21
68.6739 -90.5233 -80.9492 0 0 1 82 82 58
44.2415 -73.0264 -87.9551 0 0 1 20 33 46
95.9813 166.98 -54.8476 0 0 1 27 37 39
-29.2091 202.304 -94.3847 0 0 1 171 180 182
97.4555 31.9663 -66.8658 0 0 1 141 169 116
88.7494 248.237 -77.4642 0 0 1 97 106 83
-47.527 35.9754 -85.8777 0 0 1 110 95 83
-74.9012 -55.6671 -77.7853 0 0 1 148 147 123
47.0894 261.099 -94.6555 0 0 1 215 211 193
119.111 289.429 -75.0051 0 0 1 95 113 97
-43.1961 66.2406 -91.3368 0 0 1 72 88 104
-66.2345 -53.1774 -72.3979 0 0 1 96 101 74
98.6972 244.92 -82.9119 0 0 1 61 57 35
132.212 310.718 -74.5381 0 0 1 135 157 129
27.8889 106.765 -92.2182 0 0 1 152 151 155
127.828 100.073 -57.5547 0 0 1 13 15 14
16.6135 172.85 -93.6573 0 0 1 198 201 168
117.757 194.946 -67.4424 0 0 1 64 56 43
-73.0139 73.9532 -75.332 0 0 1 77 86 51
109.512 -42.0338 -76.4471 0 0 1 121 103 86
-58.7667 64.1215 -83.0452 0 0 1 138 128 78
-58.5603 -76.5644 -78.5107 0 0 1 21 17 17
-82.3268 304.177 -87.7409 0 0 1 103 134 82
72.9282 261.097 -79.8833 0 0 1 92 123 75
113.64 170.209 -58.9133 0 0 1 150 138 111
124.406 114.901 -61.3576 0 0 1 125 157 101
-42.7172 70.4105 -91.0341 0 0 1 233 234 230
-99.9936 54.8703 -65.325 0 0 1 20 32 19
-56.9273 -88.1983 -79.1199 0 0 1 35 31 24
-9.33463 -86.5604 -79.7031 0 0 1 9 13 13
-65.7905 -77.2816 -78.4845 0 0 1 24 25 21
-67.706 25.7205 -62.8173 0 0 1 87 91 62
-60.6973 208.828 -91.4205 0 0 1 114 129 85
94.2051 6.13266 -74.2536 0 0 1 136 116 98
-46.2321 6.58671 -81.6113 0 0 1 39 47 32
126.8 82.9044 -45.2242 0 0 1 46 44 32
-31.4547 102.099 -93.4169 0 0 1 122 114 92
-70.7651 327.925 -94.7359 0 0 1 61 62 54
69.7853 -26.2368 -89.4366 0 0 1 153 159 162
-83.5953 49.8112 -74.3633 0 0 1 11 17 13
-50.4403 52.6493 -82.0242 0 0 1 153 162 115
-80.8759 -32.4628 -74.4633 0 0 1 111 106 93
-139.611 197.183 -83.5284 0 0 1 169 156 113
22.9087 -14.8475 -90.0304 0 0 1 144 147 152
-48.2413 335.344 -91.2021 0 0 1 188 170 124
190.051 -56.2626 -38.8337 0 0 1 117 112 109
131.81 112.788 -68.9681 0 0 1 0 0 0
21.9086 65.9697 -91.3202 0 0 1 103 118 69
-20.6644 -11.5724 -90.4157 0 0 1 159 162 167
125.963 99.8739 -59.8323 0 0 1 10 14 15
120.545 -45.8319 -72.3283 0 0 1 124 135 88
35.8299 271.611 -94.7753 0 0 1 219 223 226
-64.0673 -16.7077 -61.439 0 0 1 73 59 47
84.6346 -29.3531 -84.4896 0 0 1 91 76 56
-34.6587 173.521 -93.726 0 0 1 190 199 202
-73.2522 301.43 -90.8868 0 0 1 140 157 94
92.4033 230.426 -84.059 0 0 1 109 100 71
136.093 -54.1356 -53.1558 0 0 1 97 111 78
22.1597 -63.6493 -89.1684 0 0 1 210 211 207
156.569 39.7313 -27.2686 0 0 1 153 129 62
37.0522 36.9867 -90.9021 0 0 1 159 160 162
-75.8923 -17.6273 -62.2266 0 0 1 68 72 57
62.7943 45.7972 -86.7702 0 0 1 76 66 56
-68.3549 -31.6765 -71.098 0 0 1 184 169 148
23.7259 227.096 -94.6796 0 0 1 168 165 162
-100.321 79.5368 -71.6733 0 0 1 62 70 64
53.202 235.659 -94.7895 0 0 1 223 223 226
-15.8304 311.382 -98.7145 0 0 1 35 38 37
132.108 -47.5614 -54.644 0 0 1 62 65 53
152.521 -14.4487 -44.0386 0 0 1 132 158 115
-70.8213 -23.3759 -57.444 0 0 1 185 186 101
-131.253 204.967 -84.1386 0 0 1 44 61 42
116.428 154.553 -65.2678 0 0 1 68 65 48
46.0799 109.321 -89.382 0 0 1 34 32 24
161.838 -20.3888 -32.9938 0 0 1 163 157 102
217.929 -77.3775 -24.573 -0.0939021 0.0550015 0.994061 198 163 121
-61.6962 308.177 -88.6885 0 0 1 31 32 22
122.944 76.1504 -42.4851 0 0 1 176 151 118
36.6171 325.054 -91.7621 0 0 1 25 37 29
202.322 -56.3659 -24.2772 0 0 1 133 157 100
44.6937 118.238 -88.6605 0 0 1 126 108 69
-103.378 188.614 -81.3001 0 0 1 60 76 55
-99.5618 200.778 -80.4083 0 0 1 152 153 111
-31.1087 -68.4803 -82.1901 0 0 1 177 162 132
-147.394 222.226 -94.4249 0 0 1 31 48 45
105.529 41.8569 -66.3462 0 0 1 159 140 101
162.371 70.1342 -41.5849 0 0 1 19 24 27
111.221 91.2266 -58.2282 0 0 1 94 122 81
49.304 164.989 -88.3712 0 0 1 39 38 39
105.213 231 -84.8673 0 0 1 141 124 81
-114.149 219.703 -86.7264 0 0 1 86 109 65
-72.2791 5.7618 -59.3312 -0.00171428 0.344388 0.938826 126 139 76
22.1291 82.0669 -91.7221 0 0 1 118 124 84
117.043 172.313 -60.3757 0 0 1 158 140 111
106.316 240.319 -86.6253 0 0 1 146 137 100
116.408 214.145 -74.4482 0 0 1 34 42 35
-37.5081 130.38 -93.0263 0 0 1 136 142 94
-68.6577 -69.3154 -78.1898 0 0 1 78 70 58
-3.62501 34.467 -90.3517 0 0 1 230 230 225
-86.779 40.9006 -68.2302 0 0 1 65 60 57
240.509 -57.0436 -24.2435 0 0 1 94 63 49
7.398 96.8243 -90.3963 0 0 1 92 109 88
-101.105 48.9353 -63.6367 0 0 1 99 98 92
44.7379 338.844 -91.7655 0 0 1 124 116 104
-103.644 125.121 -67.9909 0 0 1 93 121 72
-73.0028 151.303 -89.1699 0 0 1 101 121 62
11.8632 -3.34 -90.2765 0 0 1 164 164 168
22.4508 -62.0441 -88.9237 0 0 1 156 160 167
-10.4659 94.8249 -90.3583 0 0 1 105 182 200
68.2073 70.0381 -78.091 0 0 1 122 159 92
34.7464 96.0189 -92.0898 0 0 1 164 165 167
129.567 43.4701 -41.4674 0 0 1 117 115 89
77.5132 79.1034 -79.1663 0 0 1 153 148 148
-73.9459 93.4123 -80.8634 0 0 1 68 75 41
20.5666 5.05102 -90.3671 0 0 1 145 141 143
-33.1036 -81.6108 -79.6971 -0.227814 0.353409 0.907305 142 138 108
129.53 -65.3968 -64.6744 0 0 1 83 88 56
144.929 220.693 -92.8094 0 0 1 172 133 119
82.3337 279.161 -70.2115 0 0 1 48 68 58
89.6744 -51.4389 -86.1982 0 0 1 108 106 78
-136.293 234.147 -95.3873 0 0 1 49 51 48
-86.1811 288.634 -94.5327 0 0 1 211 212 214
34.2109 209.147 -94.3331 0 0 1 148 177 123
-51.4493 -23.5088 -70.9065 0 0 1 82 73 52
48.7006 233.629 -94.8451 0 0 1 179 182 171
35.7255 63.9071 -91.3253 0 0 1 161 155 119
-84.3496 160.26 -83.9118 0 0 1 35 47 41
192.577 44.7455 -56.3027 0 0 1 43 47 39
-127.162 282.486 -96.7306 0 0 1 147 132 90
-21.0557 339.28 -96.858 0 0 1 164 146 125
131.677 77.3701 -39.7236 0 0 1 72 66 37
-69.0165 -81.0863 -72.9467 0 0 1 34 50 26
-42.39 35.5733 -86.3162 0 0 1 77 83 53
68.1062 166.582 -71.3279 0 0 1 114 149 88
73.6119 299.682 -72.4347 0 0 1 77 78 51
201.779 -20.3237 -26.4278 0 0 1 123 120 117
-57.5112 -18.7603 -67.5472 0 0 1 94 116 75
-100.973 325.589 -98.3036 0 0 1 35 40 46
68.1951 177.595 -78.835 0 0 1 21 21 20
-97.357 47.6462 -74.7414 0 0 1 71 68 69
161.202 243.255 -94.8087 0 0 1 24 39 28
117.879 -68.9365 -77.1374 0 0 1 0 0 0
-101.008 63.0831 -63.3628 0 0 1 18 31 21
55.7136 42.8502 -90.4395 0 0 1 9 10 11
12.7869 22.3617 -90.5139 0 0 1 131 127 128
105.699 202.297 -75.2659 0 0 1 19 27 21
151.835 142.582 -74.9988 0 0 1 28 34 37
150.626 48.2949 -33.8722 0 0 1 14 18 22
55.8461 301.244 -79.112 0 0 1 193 183 125
-94.553 179.867 -91.441 0 0 1 13 17 16
83.9146 135.834 -60.8874 0 0 1 202 195 135
-6.07445 197.619 -94.5313 0 0 1 171 176 175
-39.0929 14.9612 -82.2514 0 0 1 124 146 97
-77.722 104.321 -82.0927 0 0 1 99 88 50
-22.7864 87.2611 -91.4187 0 0 1 156 162 169
-3.95993 15.9174 -87.5169 0 0 1 231 237 235
53.0738 140.508 -84.6751 0 0 1 81 75 63
2.05654 84.3183 -91.201 0 0 1 151 151 155
60.2307 253.65 -93.8307 0 0 1 82 104 115
-65.9668 99.4209 -87.0292 0 0 1 79 97 58
121.683 -99.114 -70.9425 0 0 1 14 19 19
64.811 167.305 -77.9683 0 0 1 94 95 81
42.5793 201.309 -94.4269 0 0 1 165 171 172
-58.5887 218.443 -92.5585 0 0 1 101 93 61
8.84794 -83.0936 -83.5863 0 0 1 21 26 25
33.9754 -67.9674 -88.9064 0 0 1 123 118 118
145.817 87.7028 -54.9198 0 0 1 9 13 17
107.307 93.1726 -63.4791 0 0 1 6 8 10
-86.6956 115.079 -82.8153 0 0 1 159 201 145
12.1969 231.144 -94.5249 0 0 1 160 162 167
-81.2137 -57.8397 -78.2565 0 0 1 155 140 104
62.3636 -75.1623 -88.4702 0 0 1 15 24 41
160.279 -81.5706 -48.3722 0 0 1 57 69 55
-3.77604 -8.248 -90.0795 0 0 1 123 120 120
114.81 251.63 -84.2323 0 0 1 179 169 107
-23.8309 12.7858 -90.3965 0 0 1 167 170 170
162.884 -51.3934 -49.0122 0 0 1 113 140 96
-125.14 -9.19725 -61.8312 0 0 1 127 134 96
114.616 31.8945 -60.6829 0 0 1 56 54 51
-19.117 275.044 -85.672 -0.257061 0.296198 0.919884 100 120 76
79.6859 68.5395 -77.5825 0 0 1 88 82 67
168.916 -11.359 -30.9803 0 0 1 13 20 16
30.1072 47.206 -90.1532 0 0 1 54 204 179
218.517 -80.6485 -27.4957 0 0 1 189 171 128
-43.3593 -54.0412 -79.6319 0 0 1 106 83 61
-10.6405 27.8541 -86.5948 0 0 1 158 160 159
179.032 45.4535 -34.0091 0 0 1 92 134 89
94.5734 168.924 -57.4882 0 0 1 0 0 0
-46.1369 67.2537 -90.3397 0 0 1 60 68 105
-108.506 101.558 -63.8627 0 0 1 122 142 86
80.7643 123.468 -70.2489 0 0 1 159 190 116
-103.552 33.3019 -53.5096 0 0 1 59 71 47
115.357 90.624 -57.0453 0 0 1 20 26 19
69.2616 292.234 -72.9052 0.161299 -0.119608 0.979631 161 165 126
-23.7133 -24.4342 -88.5212 0 0 1 141 130 104
-120.714 56.3362 -69.0767 0 0 1 25 33 30
-11.2267 -89.7042 -79.6859 0 0 1 23 29 28
183.819 -77.5625 -38.5202 0 0 1 43 58 43
-78.641 183.201 -91.5328 0 0 1 22 32 23
158.274 -35.9739 -51.7704 0 0 1 177 176 123
-68.5981 315.911 -85.0676 0 0 1 114 117 71
226.596 -24.9722 -28.5485 0 0 1 26 30 34
177.948 -2.40227 -33.4118 0 0 1 145 194 115
-15.2848 267.83 -94.2214 0 0 1 188 179 175
122.14 85.4474 -48.6024 0 0 1 38 48 40
-89.1008 55.9622 -61.822 0 0 1 67 66 54
-149.557 158.676 -95.7601 0 0 1 20 33 27
78.3916 299.625 -71.5372 0 0 1 126 101 82
107.208 129.643 -60.688 0 0 1 32 56 39
-71.7074 57.074 -69.5882 0 0 1 137 139 98
138.799 251.327 -92.2329 0 0 1 90 104 65
200.607 21.5761 -45.5682 0 0 1 18 28 25
62.7685 -74.7167 -88.0218 0 0 1 14 20 26
51.9892 185.254 -91.2723 0 0 1 37 38 38
-76.1212 99.4729 -83.2304 0 0 1 142 138 104
37.0448 -87.2618 -82.4073 0 0 1 39 48 32
-101.903 302.736 -93.1801 0 0 1 152 206 182
11.6455 -18.5394 -89.8343 0 0 1 141 138 107
-112.518 127.919 -71.357 0 0 1 125 113 97
-54.4011 222.762 -93.5661 0 0 1 136 145 92
59.2264 -2.60968 -90.056 0 0 1 146 146 151
87.6141 -58.5412 -87.9511 0 0 1 29 30 24
15.6547 109.138 -94.9346 0 0 1 83 73 56
-109.025 77.0545 -60.661 0 0 1 130 156 95
-47.5272 317.758 -88.7842 0 0 1 123 116 65
-134.781 93.4724 -67.1884 0 0 1 193 192 130
-47.2937 62.738 -87.4265 0 0 1 206 216 219
148.947 157.27 -76.0727 0 0 1 22 39 32
18.4122 197.334 -93.836 0 0 1 168 230 228
71.8243 153.229 -72.5066 0 0 1 0 0 0
137.108 -47.9765 -50.9767 0 0 1 44 45 37
72.0696 91.2267 -78.5868 0 0 1 164 164 167
-73.157 48.3321 -65.9623 0 0 1 139 153 107
55.3414 176.541 -83.3415 0 0 1 153 130 102
116.559 309.667 -77.4233 0 0 1 132 148 106
-55.3068 128.348 -92.711 0 0 1 198 203 205
-97.3458 276.439 -90.2087 0 0 1 95 106 78
147.321 314.69 -75.8641 0 0 1 64 83 68
13.9175 -8.50288 -90.053 0 0 1 106 111 81
-22.5807 266.067 -94.5313 0 0 1 194 195 195
65.8305 106.242 -78.8761 0 0 1 105 91 78
15.4409 -67.5176 -88.9863 0 0 1 42 54 73
-64.2923 259.176 -94.7934 0 0 1 204 209 210
-52.837 -83.8266 -76.1322 0 0 1 45 42 33
216.722 -64.2772 -23.6972 0 0 1 93 110 61
118.312 236.258 -91.1234 0 0 1 14 23 20
-76.1777 -33.2334 -74.306 0 0 1 172 152 136
-50.3379 164.717 -92.774 0 0 1 155 164 135
130.697 103.843 -53.7245 0 0 1 169 156 106
-64.7192 198.958 -83.6572 0 0 1 23 37 27
179.907 -1.35115 -33.2943 0 0 1 157 188 118
117.473 59.7335 -45.7722 0 0 1 191 177 109
-15.4922 209.329 -94.4614 0 0 1 174 179 185
233.59 -48.2231 -22.9173 0 0 1 163 140 106
-117.906 -31.5094 -77.5814 0 0 1 164 176 142
-104.763 147.267 -79.9447 0 0 1 90 91 62
199.376 -9.71787 -29.3534 0 0 1 81 60 58
-26.7175 13.4531 -90.3858 0 0 1 170 175 174
-116.136 21.4223 -49.2561 0 0 1 75 100 75
157.775 239.971 -94.1972 0 0 1 40 68 47
109.462 336.659 -90.5759 0 0 1 64 94 85
110.28 97.2574 -59.1689 0 0 1 16 26 25
-93.8205 15.7404 -58.4437 0 0 1 129 129 103
-76.1611 16.2382 -56.1816 0 0 1 21 26 20
173.685 37.4952 -27.9635 0 0 1 160 209 128
-76.6222 162.198 -85.9127 0 0 1 171 179 117
50.6792 -14.8539 -89.9243 0 0 1 120 126 91
96.5931 84.2589 -64.8122 0 0 1 145 163 80
-56.84 -81.7876 -74.4345 0 0 1 56 67 40
47.6531 70.8201 -91.6462 0 0 1 148 146 100
170.946 -12.7636 -29.4092 0 0 1 95 137 91
-18.6654 149.662 -95.7634 0 0 1 165 162 125
124.532 104.866 -60.4665 0 0 1 14 26 27
26.825 201.661 -94.2244 0 0 1 175 185 139
152.043 -90.0431 -55.3064 0 0 1 30 35 29
136.24 -56.1737 -52.0099 0 0 1 148 176 140
24.8523 52.2627 -90.9792 0 0 1 92 108 64
151.545 179.104 -87.9527 0 0 1 20 23 26
68.0881 190.116 -82.8898 0 0 1 37 35 28
-12.6831 253.391 -94.6024 0 0 1 126 130 126
-51.3576 329.163 -96.5388 0 0 1 50 66 42
-92.4006 195.517 -89.5525 0 0 1 16 25 22
108.774 36.4433 -64.1204 0.0162777 -0.482848 0.875553 151 132 102
-87.3392 8.90603 -61.7651 0 0 1 87 83 70
-88.9892 -33.4629 -75.8055 0 0 1 206 199 184
17.0466 261.061 -94.7382 0 0 1 204 210 212
-121.52 211.886 -83.6743 0 0 1 20 33 30
65.5715 279.226 -75.2662 0 0 1 136 126 104
-82.0969 154.793 -80.5385 0 0 1 65 86 60
-98.1657 -23.2874 -69.4599 0 0 1 153 145 110
-53.1359 -24.6889 -62.7831 0 0 1 145 129 91
100.219 112.527 -59.8367 0 0 1 82 117 70
95.7958 0.364385 -75.3651 0 0 1 151 138 127
-129.091 150.337 -84.091 0 0 1 30 42 36
97.3307 209.368 -79.8024 0 0 1 9 9 9
130.435 297.252 -75.0737 0 0 1 124 147 107
84.002 186.473 -68.6627 0 0 1 11 18 24
-56.2232 -37.2362 -76.7886 0 0 1 210 207 192
-4.65452 197.958 -94.466 0 0 1 166 171 172
149.364 8.68891 -42.0682 0 0 1 93 89 70
-134.113 335.194 -95.9313 0 0 1 81 86 56
93.3647 138.368 -53.5849 0 0 1 176 163 110
-92.7375 267.749 -90.5109 0 0 1 0 0 0
-23.3595 327.132 -99.9734 0 0 1 94 80 63
-134.419 203.332 -83.8611 0 0 1 48 63 49
135.279 31.6412 -39.7685 0 0 1 138 157 106
178.439 5.06434 -34.0191 0 0 1 45 68 35
-66.5557 -29.4691 -60.8591 0 0 1 116 129 93
-22.139 -1.5858 -90.5055 0 0 1 189 195 198
55.5081 345.222 -95.3664 0 0 1 156 173 118
-90.42 324.261 -93.8727 0 0 1 22 31 26
-47.6316 203.843 -93.2131 0 0 1 93 89 65
76.0306 217.68 -81.632 0 0 1 19 22 18
-28.3488 -61.2747 -82.069 0 0 1 42 45 36
60.3068 52.745 -87.4193 0 0 1 106 90 59
77.3208 76.828 -79.1211 -0.48047 -0.0763845 0.873678 151 147 150
-89.3754 132.512 -79.3408 0 0 1 102 128 79
99.8464 309.093 -83.4012 0 0 1 82 81 71
122.178 119.999 -64.7675 0 0 1 22 33 22
184.504 -87.0798 -42.1916 0 0 1 163 168 171
-87.4574 92.0979 -73.2606 0 0 1 17 25 20
-122.546 66.6752 -69.8486 0 0 1 21 35 31
-97.3547 -23.3924 -69.3129 0 0 1 154 140 116
69.7846 68.8483 -79.3477 0 0 1 145 117 87
57.9336 305.366 -78.8985 0 0 1 94 107 79
96.7702 92.113 -66.3862 0 0 1 122 152 106
-29.3676 306.917 -99.975 0 0 1 106 103 100
68.9823 287.273 -72.5446 0 0 1 134 162 103
-31.832 -24.1277 -85.1211 0 0 1 154 132 107
140.134 98.7179 -46.0754 0 0 1 146 134 96
-38.4354 92.0679 -91.9505 0 0 1 198 208 211
38.3736 -79.0912 -84.8404 0 0 1 8 10 10
-59.993 305.65 -86.052 0 0 1 102 128 68
-74.3672 144.77 -84.6171 0 0 1 75 88 65
-127.698 328.968 -93.3384 0 0 1 20 29 33
-80.9863 -99.6572 -76.231 0 0 1 72 44 43
64.816 191.721 -85.2981 0 0 1 19 16 14
-34.4957 66.3732 -91.0096 0 0 1 134 136 143
63.3013 324.048 -91.3081 0 0 1 25 31 29
-78.4892 198.878 -86.206 0 0 1 18 23 17
-96.6967 83.7638 -67.1904 0 0 1 126 135 106
-7.19951 204.878 -94.598 0 0 1 173 174 179
206.261 23.6887 -37.5912 0 0 1 23 33 33
-81.4258 112.705 -88.5033 0 0 1 31 29 18
-89.164 -90.418 -87.8798 0 0 1 79 69 46
-127.934 -5.8268 -58.7686 0 0 1 179 165 132
-115.61 188.273 -76.8199 0 0 1 75 85 65
93.528 56.0791 -72.3053 0 0 1 146 150 158
-17.5851 243.975 -94.8569 0 0 1 0 0 0
36.3113 -87.1434 -82.6436 0 0 1 15 21 18
-116.79 195.892 -79.1758 0 0 1 77 81 75
81.1407 93.0565 -78.2991 -0.177675 -0.400865 0.898743 211 204 211
-123.778 79.2118 -66.2155 0 0 1 97 110 75
65.5102 320.118 -83.3717 0 0 1 59 67 48
-24.0352 257.817 -94.581 0 0 1 175 185 186
120.17 104.208 -60.6685 0 0 1 14 24 24
-73.7591 -45.8334 -76.8285 0 0 1 82 72 60
-53.5909 277.784 -94.7497 0.112524 -0.160342 0.980627 115 113 97
-114.938 -84.2541 -97.9574 0 0 1 112 118 80
29.43 315.699 -92.5874 0 0 1 19 29 28
119.031 30.4698 -56.559 0 0 1 202 199 161
211.732 -28.2022 -24.4945 0 0 1 19 26 18
-60.1664 20.7081 -71.8589 0 0 1 90 91 68
-14.6429 269.259 -94.6235 0 0 1 85 72 68
-122.394 134.18 -75.6617 0 0 1 43 52 41
-39.7857 238.099 -94.9387 0 0 1 184 188 186
-32.1291 10.7326 -90.4179 0 0 1 175 177 170
-105.772 19.8737 -54.132 0 0 1 114 114 91
112.699 -46.2936 -76.567 0 0 1 75 60 57
122.606 138.002 -72.5714 0 0 1 11 17 18
-111.442 132.028 -73.0691 0 0 1 89 86 82
-113.411 -52.6995 -81.6313 0 0 1 0 0 0
53.1044 235.919 -94.7457 0 0 1 222 223 226
-12.0964 -95.8282 -75.616 0 0 1 109 134 158
132.259 178.975 -70.9976 0 0 1 172 162 137
-97.4584 32.658 -54.9858 0 0 1 27 39 31
106.275 -45.7703 -79.1898 0 0 1 152 152 159
45.7795 51.8821 -91.2248 0 0 1 146 147 149
-72.0421 -3.07906 -58.9345 0 0 1 97 103 73
152.328 158.408 -67.8918 0 0 1 18 33 28
-13.077 268.787 -94.5133 0 0 1 183 174 161
155.14 35.0553 -24.1847 0 0 1 107 164 98
125.55 104.057 -59.2635 0 0 1 11 22 21
106.51 -35.7612 -78.105 0 0 1 132 126 100
-101.201 264.059 -93.9023 0 0 1 66 72 45
-17.5016 101.431 -94.3297 0 0 1 77 68 54
-50.6153 -32.4327 -74.1379 0 0 1 227 226 218
41.0507 330.926 -92.162 0 0 1 47 74 53
48.9874 26.819 -90.7845 0 0 1 159 160 165
-63.0083 317.944 -87.0536 0 0 1 67 82 61
149.925 53.2202 -31.0229 0 0 1 207 200 139
96.614 30.5126 -68.3582 -0.034225 -0.31456 0.94862 137 133 107
98.7543 104.164 -59.1049 0 0 1 22 36 25
-48.5527 190.37 -95.144 0 0 1 118 103 67
46.906 18.0373 -90.5537 0 0 1 142 142 145
221.866 -56.2572 -26.0611 0 0 1 124 109 91
4.52239 55.597 -91.0222 0 0 1 150 150 154
118.119 119.516 -65.5152 0 0 1 19 29 23
148.994 -73.6067 -63.0381 0 0 1 41 50 43
-6.15237 322.131 -85.4065 0 0 1 58 67 54
33.3402 188.274 -93.9056 0 0 1 175 174 178
51.3864 278.369 -85.1293 0 0 1 140 132 109
59.4827 -73.6382 -88.5876 0 0 1 13 18 19
167.545 -77.3978 -39.6602 0 0 1 34 46 39
163.799 -88.3891 -40.3446 0.401771 0.29321 0.867529 39 43 33
-99.4771 112.107 -75.6971 0 0 1 19 20 18
113.821 225.687 -79.8593 0 0 1 46 48 42
-35.1253 208.612 -94.5808 0 0 1 180 187 189
-32.3217 -28.4655 -84.0235 0 0 1 211 199 163
67.1801 333.081 -99.8968 0 0 1 11 18 24
-87.8888 249.656 -89.724 0 0 1 61 66 40
-39.4587 189.282 -94.364 0 0 1 169 179 122
82.8233 251.921 -81.8284 0 0 1 28 44 37
58.9424 180.589 -83.8104 0 0 1 53 53 48
-45.2374 274.288 -94.7459 0 0 1 171 178 113
15.9388 104.413 -94.0505 0 0 1 51 47 36
-60.9213 149.277 -90.0934 0 0 1 180 150 97
-86.4391 307.854 -88.9832 0 0 1 110 111 105
164.583 18.7813 -30.9914 0 0 1 149 187 98
16.8553 312.467 -85.2624 0 0 1 80 95 65
92.7867 153.447 -53.2885 0 0 1 160 193 169
-39.4619 330.583 -99.5109 0 0 1 56 71 53
237.428 -27.4992 -27.1808 0 0 1 157 149 146
-6.92092 -24.3046 -89.6511 0 0 1 137 156 96
6.63642 292.94 -94.5159 0 0 1 147 160 99
-93.4614 170.181 -82.3241 0 0 1 89 102 76
-26.7408 238.788 -94.5446 0 0 1 171 172 130
86.6896 -29.7878 -83.8214 0 0 1 81 82 73
-6.15217 -97.6539 -74.3766 0 0 1 211 219 228
-69.0234 -14.6152 -59.762 0 0 1 109 105 69
-94.0286 145.192 -79.1198 0 0 1 16 22 18
141.265 248.735 -94.006 0 0 1 21 37 25
-65.9909 -84.0216 -73.8884 0 0 1 82 72 58
38.2988 79.5759 -91.7152 0 0 1 162 162 164
121.33 -12.2547 -64.2403 0 0 1 25 22 19
33.0816 -42.322 -89.41 0 0 1 111 104 81
50.003 -7.21578 -90.1031 0 0 1 98 113 70
149.748 56.8157 -32.3085 0 0 1 84 101 90
201.545 -34.2321 -22.6587 0 0 1 76 92 70
107.461 -81.7352 -76.9223 0 0 1 135 159 98
11.1684 42.4762 -90.8226 0 0 1 149 147 152
101.712 261.299 -72.914 0 0 1 123 139 98
-63.9833 268.527 -94.8877 0 0 1 164 162 121
116.405 34.2435 -54.8458 0 0 1 200 201 144
-129.61 76.1388 -71.1229 0 0 1 96 103 72
158.133 -92.1607 -47.8473 0 0 1 38 46 47
135.713 -30.1298 -58.6391 0 0 1 105 110 64
70.9308 210.994 -81.5598 0 0 1 85 81 58
229.253 -44.4279 -23.8936 0 0 1 98 121 82
196.152 -35.5698 -24.6818 0 0 1 125 145 98
-138.583 238.377 -95.7479 0 0 1 111 117 90
-49.2045 -27.7133 -70.2935 0 0 1 158 153 111
10.4161 314.252 -86.7395 0 0 1 14 17 15
8.0411 50.4978 -90.7336 0 0 1 156 155 160
38.1072 335.375 -97.6506 0 0 1 13 23 21
34.2018 300.385 -88.6904 0 0 1 126 142 103
-109.933 47.1367 -56.3024 0 0 1 207 182 129
27.5664 269.967 -94.9 0 0 1 199 201 200
-7.60356 -38.3589 -89.3055 0.0769829 0.264117 0.961413 159 158 163
-9.44072 -76.1461 -85.0837 0 0 1 51 56 35
44.264 102.023 -91.6773 0 0 1 56 104 109
44.0034 57.1843 -91.2882 0 0 1 156 157 161
71.3844 282.641 -70.5288 0 0 1 63 78 61
130.922 20.4329 -50.7271 0 0 1 161 158 150
192.621 -11.9982 -27.2121 0 0 1 197 201 183
-16.0552 218.327 -94.7479 0 0 1 162 165 170
-45.7874 185.713 -93.4258 0 0 1 128 125 106
-95.6043 172.841 -81.244 0 0 1 142 161 104
54.1973 292.991 -79.9404 0 0 1 159 149 108
-62.1196 15.6471 -63.72 0 0 1 37 39 29
35.615 -32.4862 -89.7294 0 0 1 126 115 85
40.836 -78.1809 -85.4337 0 0 1 13 15 14
152.037 283.097 -79.0708 0 0 1 164 162 134
85.729 326.683 -97.6794 0 0 1 24 28 33
101.268 215.072 -79.6907 0 0 1 75 63 52
-21.5868 -91.8452 -79.666 0 0 1 115 119 128
78.9912 298.597 -73.2209 0 0 1 86 86 65
39.8578 47.812 -91.2275 0 0 1 156 156 159
-17.1389 151.624 -95.8202 0 0 1 156 147 115
26.6886 313.636 -86.2304 0 0 1 122 138 101
146.818 -6.39469 -50.6612 0 0 1 150 141 129
-75.3333 -4.58581 -64.1089 0 0 1 71 79 63
193.589 5.68621 -28.1827 0 0 1 111 145 107
16.6644 28.2662 -90.5162 0 0 1 148 145 148
-49.6091 221.776 -94.689 0 0 1 198 199 158
94.1513 224.117 -85.7727 0 0 1 12 14 14
149.199 -39.4807 -49.7978 0 0 1 48 52 37
114.769 -55.1013 -76.9356 0 0 1 0 0 0
41.6715 19.1485 -90.5093 0 0 1 131 131 133
-22.5071 157.61 -93.7132 0 0 1 178 160 160
-31.7078 196.549 -94.4484 0 0 1 190 195 200
-42.6855 217.455 -94.7369 0 0 1 199 204 207
145.222 -61.6355 -50.9827 0 0 1 53 57 35
139.444 0.521607 -51.735 0 0 1 192 178 144
-90.1941 -44.4868 -77.7254 0 0 1 102 93 77
-15.9129 171.937 -94.1591 0 0 1 24 28 22
118.031 106.403 -60.6574 0 0 1 15 25 20
99.8156 112.511 -59.9044 0 0 1 0 0 0
-56.5867 83.9534 -91.4951 0 0 1 141 143 102
65.8722 215.048 -93.5757 0 0 1 18 23 26
59.1405 164.611 -79.1468 0 0 1 139 127 113
94.0853 -68.7354 -84.6175 0 0 1 69 77 42
37.5037 345.531 -91.5654 0 0 1 35 59 41
30.8264 -72.9384 -86.0223 0 0 1 130 143 165
-21.0263 238.009 -94.6631 0 0 1 172 179 182
165.965 204.757 -87.63 0 0 1 22 27 30
-69.7785 338.597 -98.4584 0 0 1 32 36 30
-102.65 257.936 -96.3123 0 0 1 65 80 58
113.131 38.4007 -55.6237 0 0 1 181 170 144
55.2497 243.072 -94.7428 0 0 1 215 216 218
100.286 115.909 -59.055 0.234698 0.00465907 0.972057 93 105 65
-17.1695 273.318 -94.7781 0 0 1 129 120 90
91.8441 108.499 -70.798 0 0 1 9 14 10
9.70792 40.1905 -90.8007 0 0 1 148 147 152
-93.3665 180.368 -82.3215 0 0 1 79 87 66
-8.48483 279.763 -88.4454 0 0 1 130 158 106
95.4676 291.536 -82.8078 0 0 1 23 34 34
27.7586 -18.5178 -89.9126 0 0 1 140 140 144
17.5081 -8.25848 -90.2126 -0.094829 -0.279228 0.955531 115 122 90
173.301 208.791 -84.0621 0 0 1 32 40 40
11.6572 227.1 -94.5988 0 0 1 159 160 164
-101.326 286.388 -84.4877 0 0 1 111 115 79
-122.479 195.152 -76.262 0 0 1 17 28 23
-3.62078 205.267 -94.6335 0 0 1 171 170 176
84.5825 136.537 -60.146 0 0 1 192 201 126
-96.0062 281.762 -90.0582 0 0 1 105 109 71
-114.045 204.797 -81.4795 0 0 1 55 71 54
28.0702 -9.01255 -90.1006 0 0 1 147 150 154
-18.6617 70.2896 -90.547 0 0 1 80 73 79
50.6954 215.56 -94.6741 0 0 1 209 213 216
125.006 190.705 -77.3085 0 0 1 66 67 48
-121.192 86.6835 -62.3391 0 0 1 173 176 121
83.1358 97.4202 -78.3479 0 0 1 188 190 187
-76.6604 -29.0058 -60.9219 0 0 1 143 147 96
-0.250132 106.959 -94.6746 0 0 1 94 101 63
-118.233 32.686 -60.5575 0 0 1 25 36 31
39.2675 230.966 -94.8011 0 0 1 214 217 221
186.908 -69.8199 -43.8056 0 0 1 144 148 152
-58.3673 205.662 -90.9829 0 0 1 134 137 106
27.955 276.834 -94.7031 0 0 1 219 220 224
135.844 -86.677 -60.0212 0 0 1 42 52 50
-90.5314 82.9864 -67.4979 0 0 1 15 24 17
150.733 110.128 -61.0063 0 0 1 8 13 17
29.1484 281.673 -94.686 0 0 1 214 216 217
-122.526 125.392 -67.52 0 0 1 64 75 49
17.0969 34.3997 -90.5437 0 0 1 147 147 152
-91.2993 258.745 -88.2513 0 0 1 63 75 48
-29.5359 46.3247 -90.4671 0 0 1 24 30 42
33.979 339.992 -90.095 0 0 1 137 167 107
95.9252 96.0237 -64.2551 0 0 1 65 87 67
25.9394 304.775 -86.2638 0 0 1 112 132 87
-91.4616 134.812 -85.4897 0 0 1 99 93 54
-107.386 134.742 -72.3809 0 0 1 50 47 30
116.568 243.591 -96.6315 0 0 1 31 31 25
219.054 -52.789 -21.0398 0 0 1 116 135 124
-113.181 103.622 -61.548 0 0 1 120 140 87
-95.9438 61.2789 -61.4538 0 0 1 67 82 44
25.2961 335.897 -91.6879 0 0 1 36 58 38
11.1852 58.0102 -90.7857 0 0 1 153 156 161
228.832 -56.8132 -22.8914 0 0 1 20 25 23
232.993 -44.2377 -21.5448 0 0 1 175 190 150
-32.8314 -26.9521 -83.7774 0 0 1 197 189 152
139.927 -45.7672 -60.7853 0 0 1 68 77 47
-105.729 107.467 -71.1664 0 0 1 68 77 59
89.3545 94.5523 -67.4682 0 0 1 107 133 87
113.141 302.31 -77.0892 0 0 1 98 83 79
15.3739 -6.74282 -90.1366 0 0 1 100 108 75
171.73 -47.1655 -44.1858 0 0 1 73 77 50
24.1267 330.251 -92.1097 0 0 1 179 210 154
103.735 308.657 -73.742 0 0 1 106 98 72
53.9761 295.801 -79.1685 0 0 1 106 110 79
92.8709 203.601 -71.6518 0 0 1 84 74 51
120.622 320.098 -82.635 0 0 1 44 47 41
-19.6257 100.924 -94.1628 0 0 1 84 77 63
126.327 -62.0922 -74.3416 0 0 1 59 56 50
-65.3058 228.721 -91.4904 0 0 1 51 63 50
71.8988 295.962 -73.0685 0 0 1 142 134 112
24.6055 313.704 -90.0638 -0.112251 0.436033 0.892903 23 28 24
28.0322 251.546 -94.8575 0 0 1 182 191 193
14.0164 209.005 -94.4344 0 0 1 163 164 168
-97.6616 -25.1195 -69.7195 0 0 1 187 174 154
-70.7367 -81.3924 -72.245 0 0 1 64 97 46
-22.5857 164.468 -93.7982 0 0 1 135 123 88
232.468 -22.4991 -27.3094 0 0 1 26 46 21
-65.9422 -37.8914 -75.8895 0 0 1 203 202 189
-112.894 172.578 -73.7581 0 0 1 74 81 54
67.6853 174.023 -76.8728 0 0 1 22 23 21
36.7667 -89.8661 -81.6156 0 0 1 14 16 18
130.045 -28.5828 -63.6169 0 0 1 40 39 33
12.6604 107.746 -95.6979 0 0 1 91 77 65
209.49 -42.3648 -19.0644 0 0 1 186 187 151
140.893 -18.8731 -56.1371 0 0 1 150 154 155
0.059764 271.111 -94.7458 0 0 1 215 219 224
150.697 241.688 -93.5753 0 0 1 32 43 25
70.51 57.9648 -80.3836 0 0 1 154 135 111
78.4674 314.774 -78.3228 0 0 1 193 179 135
18.6447 8.27454 -90.3481 0 0 1 144 140 139
28.3453 229.674 -94.7027 0 0 1 125 121 122
70.1645 -19.4305 -89.6507 0 0 1 178 171 156
-68.4765 338.366 -96.7053 0 0 1 48 49 41
-16.1298 31.1097 -81.9467 0 0 1 210 215 220
105.446 20.5145 -65.6862 0 0 1 128 130 138
-50.595 -88.0379 -71.4274 0 0 1 83 104 55
-118.906 167.169 -78.2989 0 0 1 69 81 73
-6.22136 8.95446 -90.401 0 0 1 143 141 141
-132.977 162.43 -89.3521 0 0 1 30 41 32
135.304 101.515 -49.7108 0 0 1 163 142 111
147.256 74.6041 -42.8956 0 0 1 46 53 59
-29.1327 28.2322 -81.7648 0 0 1 214 218 224
-68.2927 86.4648 -80.8321 0 0 1 35 41 30
107.25 123.509 -61.5123 0 0 1 69 110 63
-76.0175 172.257 -84.8965 0 0 1 75 103 46
-60.7789 231.972 -94.4132 0 0 1 146 145 106
-24.8574 180.506 -93.8431 0 0 1 165 162 114
26.5217 89.5425 -91.809 0 0 1 158 158 158
-75.9456 87.1258 -80.1466 0 0 1 127 143 83
-68.0648 119.273 -92.3841 0 0 1 156 156 148
77.5791 224.144 -83.2794 0 0 1 18 24 20
11.5934 302.983 -88.1236 0 0 1 0 0 0
98.56 -55.0842 -82.6028 0 0 1 51 67 40
5.23297 132.705 -96.5079 0 0 1 48 65 58
-31.0413 188.871 -94.257 0 0 1 191 194 199
1.69123 91.3077 -91.2239 -0.010812 0.0154407 0.999822 176 179 183
-59.4147 -8.83505 -58.4578 0 0 1 83 85 58
18.3144 133.677 -91.9829 0 0 1 200 226 228
44.1931 -24.2418 -89.78 0 0 1 129 118 86
42.4315 153.189 -86.5407 0 0 1 87 83 60
221.276 -14.047 -25.707 0 0 1 98 145 78
110.745 -37.3788 -71.1124 0 0 1 116 140 86
-87.791 131.202 -80.513 0 0 1 127 131 78
-37.4783 174.402 -93.8587 0 0 1 186 194 197
146.458 -71.9753 -52.4311 0 0 1 202 192 119
-77.6476 -39.5636 -78.7244 0.185497 -0.268642 0.94521 111 115 121
-64.6457 326.753 -95.9251 0 0 1 101 98 95
-90.0897 -29.4074 -73.8636 0 0 1 180 179 167
-63.0762 183.867 -89.7533 0 0 1 144 165 86
185.828 -93.5756 -41.9666 0.465565 0.0333268 0.884386 197 204 206
-16.9228 -53.917 -87.1704 0 0 1 162 144 112
178.097 -24.2667 -38.3091 0 0 1 29 43 26
-38.001 200.24 -94.5639 0 0 1 169 167 111
1.29692 315.917 -86.3776 0 0 1 32 42 32
48.8067 277.931 -88.4324 0 0 1 135 128 118
-54.94 -47.6689 -72.3918 0 0 1 79 101 58
-99.4629 331.877 -95.9003 0 0 1 140 141 83
-33.9787 35.1422 -87.6029 0 0 1 178 191 202
-50.3733 30.7241 -80.5057 0 0 1 174 183 111
199.934 -21.2272 -27.1718 0 0 1 123 116 107
143.791 116.988 -67.8125 0 0 1 35 40 43
-82.0127 281.322 -94.5737 0 0 1 206 208 208
-86.4493 -19.8875 -63.3714 0 0 1 203 197 162
165.557 7.04734 -31.8463 0 0 1 30 55 30
117.264 126.896 -68.6211 0 0 1 28 47 31
-2.58344 295.991 -86.5595 0 0 1 185 196 111
-79.4481 7.28679 -56.1658 0 0 1 78 70 63
-131.791 196.971 -80.4074 0 0 1 106 130 99
111.946 110.609 -64.456 0 0 1 11 14 11
-44.1792 87.4849 -91.8908 0 0 1 196 202 207
-39.2082 95.2461 -92.1904 0 0 1 201 211 214
-48.8601 181.49 -92.904 0 0 1 122 117 96
46.4359 58.7001 -91.5873 0 0 1 0 0 0
135.98 77.8151 -41.7604 0 0 1 65 58 48
-80.7826 86.1215 -80.2817 0 0 1 15 21 18
-73.9187 -95.4083 -78.8512 0 0 1 58 65 48
40.3824 132.98 -92.1384 0 0 1 53 51 47
49.9135 -14.9896 -89.952 0 0 1 120 125 88
66.9634 59.1493 -82.8841 0 0 1 93 85 70
-26.3289 18.6027 -90.1173 0 0 1 106 131 148
126.7 135.68 -71.3761 0 0 1 17 30 29
154.063 291.365 -77.9693 0 0 1 142 158 127
-35.5067 320.764 -94.4324 0 0 1 120 128 97
80.9134 27.5862 -79.6602 0 0 1 15 17 14
82.8289 78.198 -76.8487 0 0 1 185 175 139
144.554 -81.0628 -54.5994 0 0 1 34 47 41
-16.4191 11.2521 -90.4003 0 0 1 144 138 149
83.9975 91.2872 -78.2031 0 0 1 197 181 145
220.666 -73.9573 -23.3934 0 0 1 191 197 126
44.1341 -89.2893 -81.3666 0 0 1 130 135 108
88.3474 118.4 -65.9738 0 0 1 35 45 29
-55.1896 36.7151 -79.5991 0 0 1 163 192 107
113.032 112.733 -78.6525 0 0 1 37 54 52
28.9391 224.624 -94.7596 0 0 1 210 210 210
87.4246 -72.0787 -88.0007 0 0 1 29 37 21
-7.595 291.123 -89.7814 0 0 1 89 110 86
-81.2742 304.949 -87.1184 0 0 1 86 106 63
196.148 -32.111 -26.9556 0 0 1 157 164 135
221.309 -55.9804 -22.587 0 0 1 200 197 156
109.387 141.882 -55.1058 0 0 1 97 116 79
-69.6007 172.531 -89.8603 0 0 1 110 126 100
-55.702 3.74973 -65.1411 0 0 1 12 16 12
21.358 -7.17777 -90.1648 0 0 1 146 151 156
-82.303 -19.2083 -61.3365 0 0 1 161 149 101
-105.58 301.561 -87.1864 0 0 1 97 112 65
66.129 322.749 -83.8458 0 0 1 50 58 40
-37.9919 97.4833 -92.0837 0 0 1 159 170 106
163.586 73.235 -37.7631 0 0 1 200 199 165
77.0679 285.299 -68.2005 0 0 1 193 172 155
-69.2543 153.672 -93.6905 0 0 1 65 80 39
95.0806 154.026 -53.8823 0 0 1 123 125 108
-56.039 -45.9591 -73.6852 0 0 1 21 31 17
-66.7753 222.705 -86.2726 0 0 1 77 90 67
-12.8094 205.373 -94.4989 0 0 1 172 177 182
-65.6304 -55.3982 -73.5505 0 0 1 87 120 53
-71.1805 66.7229 -74.6194 0 0 1 40 51 33
-42.0244 249.96 -94.7689 0 0 1 183 189 192
57.8389 282.764 -78.3053 0 0 1 159 187 117
81.528 76.4587 -75.4884 0 0 1 172 181 127
114.251 46.2753 -57.3466 0 0 1 60 62 57
-58.3237 -50.0286 -74.2736 0 0 1 12 22 13
162.707 -76.2971 -52.5192 0 0 1 49 51 44
73.9935 109.529 -78.4213 0 0 1 201 202 205
51.0518 302.202 -83.2619 0 0 1 100 93 67
147.765 37.2628 -25.1811 0 0 1 114 113 66
12.2418 -96.3816 -76.4297 0 0 1 168 220 221
58.6922 0.0347269 -90.2936 0 0 1 147 147 151
26.5782 -88.2957 -81.9162 0 0 1 58 80 47
124.593 86.8634 -58.0382 0 0 1 64 62 42
12.6684 -76.8899 -83.2123 0 0 1 50 63 43
79.897 157.007 -65.9582 0 0 1 72 71 63
59.3339 268.115 -82.6346 0 0 1 195 187 159
-68.1731 194.993 -86.5299 0 0 1 90 97 55
121.874 305.769 -76.7154 0 0 1 44 50 59
-9.2943 -97.3942 -74.4084 0 0 1 223 227 230
-25.3408 72.9599 -91.3048 0 0 1 24 30 40
58.0853 116.32 -84.1134 0 0 1 80 71 60
-74.9597 -43.9075 -76.3712 0 0 1 95 85 57
64.6205 310.793 -78.464 0 0 1 28 38 35
-86.9107 78.4056 -74.8371 0 0 1 4 6 5
129.804 -73.2281 -71.4497 0 0 1 36 39 40
13.1399 259.109 -94.7594 0 0 1 177 181 181
-34.4336 319.241 -93.3863 0 0 1 135 150 115
106.204 -19.8614 -71.0118 0 0 1 133 162 109
-47.3526 -96.9211 -71.9049 0 0 1 84 86 64
68.7125 209.658 -89.4974 0 0 1 34 35 33
146.038 71.0244 -43.9635 0 0 1 43 45 41
17.3422 75.6056 -91.3836 0 0 1 115 116 81
53.2216 110.397 -85.472 0 0 1 116 98 76
26.9853 330.005 -93.3284 0 0 1 37 66 45
-145.562 241.724 -91.652 0 0 1 30 45 41
-3.80546 44.8879 -90.4983 0 0 1 166 167 167
74.4119 292.349 -73.3145 0 0 1 106 119 96
90.6854 163.32 -53.9388 0 0 1 146 175 142
124.872 87.2393 -48.1814 0 0 1 58 54 37
-11.8065 -25.7989 -89.8504 0 0 1 94 109 112
-143.817 211.139 -86.8809 0 0 1 177 154 101
-104.541 -46.1099 -77.9008 0 0 1 33 36 30
129.314 226.02 -79.2508 0 0 1 97 87 57
119.608 -48.4402 -64.8027 0 0 1 120 129 91
-50.7659 48.3948 -83.8436 0 0 1 131 141 110
-94.0866 86.9339 -62.9293 0 0 1 196 202 146
-60.2299 -66.0173 -78.5907 0 0 1 73 62 49
45.7183 193.292 -94.1403 0 0 1 112 160 81
77.0041 -18.3253 -87.7949 0 0 1 144 129 104
-127.085 237.771 -98.7291 0 0 1 78 110 66
-137.726 82.7529 -67.1326 0 0 1 25 52 35
85.9127 215.126 -76.1331 0 0 1 63 57 38
105.038 302.161 -83.395 0 0 1 87 81 54
19.7017 -46.5497 -89.259 0 0 1 93 112 59
-38.3336 117.706 -93.6198 0 0 1 103 95 71
71.2763 285.934 -73.5864 0 0 1 129 108 87
-25.8245 200.659 -94.2849 0 0 1 169 178 176
-78.2199 303.76 -86.6331 0 0 1 119 140 93
33.2706 245.368 -94.8969 0 0 1 155 159 161
237.836 -59.8075 -25.7751 0 0 1 176 160 126
43.4755 271.336 -93.9373 0 0 1 204 249 252
-121.909 168.077 -75.9728 0 0 1 89 96 60
-94.6007 -12.1616 -56.7488 0 0 1 154 150 114
9.90926 265.008 -94.6879 0 0 1 185 190 193
-5.96102 -79.7461 -84.0745 0 0 1 45 52 59
-15.0686 284.444 -94.2033 0 0 1 121 124 91
163.63 194.186 -88.765 0 0 1 18 23 26
99.9199 213.418 -80.3161 0 0 1 45 37 31
81.7776 264.097 -78.356 0 0 1 192 176 125
14.0158 261.6 -94.9417 0 0 1 0 0 0
116.115 123.157 -63.6336 0 0 1 96 117 76
-35.2488 278.849 -94.6866 0 0 1 210 213 214
57.4429 314.266 -82.8246 0 0 1 43 49 47
9.81983 218.076 -94.5952 0 0 1 164 165 170
117.852 215.762 -75.1118 0 0 1 26 32 28
-24.2482 7.75997 -90.4999 0 0 1 187 192 194
-48.7713 107.99 -92.3923 0 0 1 200 208 210
-71.1117 142.761 -87.1532 0 0 1 131 143 78
-69.1312 -29.4683 -69.1115 0 0 1 149 122 94
148.368 -50.051 -45.4894 0 0 1 132 141 128
-114.101 276.429 -94.8468 0 0 1 24 27 25
22.633 284.534 -94.8186 0 0 1 225 228 230
76.7361 88.1596 -78.8272 0 0 1 172 171 171
-81.4127 -52.4888 -75.601 0 0 1 107 142 51
-44.4428 233.376 -94.9712 0 0 1 183 188 187
15.8982 -31.75 -89.6969 0 0 1 145 144 144
74.605 55.6611 -79.9813 0 0 1 164 163 167
